1.080000000000000E+03 1.580000000000000E+03 -3.435270132517838E-01
1.060000000000000E+03 1.590000000000000E+03 -3.292558613659530E-01
1.040000000000000E+03 1.600000000000000E+03 -3.149847094801222E-01
1.020000000000000E+03 1.610000000000000E+03 -3.007135575942914E-01
1.000000000000000E+03 1.620000000000000E+03 -2.864424057084607E-01
9.800000000000000E+02 1.630000000000000E+03 -2.721712538226299E-01
9.600000000000000E+02 1.640000000000000E+03 -2.579001019367991E-01
9.400000000000000E+02 1.650000000000000E+03 -2.436289500509683E-01
9.200000000000000E+02 1.660000000000000E+03 -2.293577981651375E-01
9.000000000000000E+02 1.670000000000000E+03 -2.150866462793067E-01
8.800000000000000E+02 1.680000000000000E+03 -2.008154943934759E-01
8.600000000000000E+02 1.690000000000000E+03 -1.865443425076452E-01
8.400000000000000E+02 1.700000000000000E+03 -1.722731906218143E-01
8.200000000000000E+02 1.710000000000000E+03 -1.580020387359836E-01
8.000000000000000E+02 1.720000000000000E+03 -1.437308868501528E-01
7.800000000000000E+02 1.730000000000000E+03 -1.294597349643219E-01
7.600000000000000E+02 1.740000000000000E+03 -1.151885830784912E-01
7.400000000000000E+02 1.750000000000000E+03 -1.009174311926604E-01
7.200000000000000E+02 1.760000000000000E+03 -8.664627930682967E-02
7.000000000000000E+02 1.770000000000000E+03 -7.237512742099883E-02
6.800000000000000E+02 1.780000000000000E+03 -5.810397553516811E-02
6.600000000000000E+02 1.790000000000000E+03 -4.383282364933727E-02
6.400000000000000E+02 1.800000000000000E+03 -2.956167176350644E-02
6.200000000000000E+02 1.810000000000000E+03 -1.529051987767571E-02
6.000000000000000E+02 1.820000000000000E+03 -1.019367991844877E-03
5.800000000000000E+02 1.830000000000000E+03 1.325178389398585E-02
5.600000000000000E+02 1.840000000000000E+03 2.752293577981657E-02
5.400000000000000E+02 1.850000000000000E+03 4.179408766564752E-02
5.200000000000000E+02 1.860000000000000E+03 5.606523955147824E-02
5.000000000000000E+02 1.870000000000000E+03 7.033639143730896E-02
4.800000000000000E+02 1.880000000000000E+03 8.460754332313991E-02
4.600000000000000E+02 1.890000000000000E+03 9.887869520897064E-02
4.400000000000000E+02 1.900000000000000E+03 1.131498470948014E-01
4.200000000000000E+02 1.910000000000000E+03 1.274209989806321E-01
4.000000000000000E+02 1.920000000000000E+03 1.416921508664630E-01
3.800000000000000E+02 1.930000000000000E+03 1.559633027522938E-01
3.600000000000000E+02 1.940000000000000E+03 1.702344546381245E-01
3.400000000000000E+02 1.950000000000000E+03 1.845056065239554E-01
3.200000000000000E+02 1.960000000000000E+03 1.987767584097861E-01
3.000000000000000E+02 1.970000000000000E+03 2.130479102956169E-01
2.800000000000000E+02 1.980000000000000E+03 2.273190621814476E-01
2.600000000000000E+02 1.990000000000000E+03 2.415902140672785E-01
2.400000000000000E+02 2.000000000000000E+03 2.558613659531093E-01
2.000000000000000E+03 1.130000000000000E+03 -1.000000000000000E+00
1.980000000000000E+03 1.140000000000000E+03 -9.857288481141692E-01
1.960000000000000E+03 1.150000000000000E+03 -9.714576962283384E-01
1.940000000000000E+03 1.160000000000000E+03 -9.571865443425076E-01
1.920000000000000E+03 1.170000000000000E+03 -9.429153924566769E-01
1.900000000000000E+03 1.180000000000000E+03 -9.286442405708460E-01
1.880000000000000E+03 1.190000000000000E+03 -9.143730886850153E-01
1.860000000000000E+03 1.200000000000000E+03 -9.001019367991845E-01
1.840000000000000E+03 1.210000000000000E+03 -8.858307849133538E-01
1.820000000000000E+03 1.220000000000000E+03 -8.715596330275229E-01
1.800000000000000E+03 1.230000000000000E+03 -8.572884811416921E-01
1.780000000000000E+03 1.240000000000000E+03 -8.430173292558614E-01
1.760000000000000E+03 1.250000000000000E+03 -8.287461773700305E-01
1.740000000000000E+03 1.260000000000000E+03 -8.144750254841998E-01
1.720000000000000E+03 1.270000000000000E+03 -8.002038735983690E-01
1.700000000000000E+03 1.280000000000000E+03 -7.859327217125383E-01
1.680000000000000E+03 1.290000000000000E+03 -7.716615698267074E-01
1.660000000000000E+03 1.300000000000000E+03 -7.573904179408766E-01
1.640000000000000E+03 1.310000000000000E+03 -7.431192660550459E-01
1.620000000000000E+03 1.320000000000000E+03 -7.288481141692150E-01
1.600000000000000E+03 1.330000000000000E+03 -7.145769622833842E-01
1.580000000000000E+03 1.340000000000000E+03 -7.003058103975535E-01
1.560000000000000E+03 1.350000000000000E+03 -6.860346585117227E-01
1.540000000000000E+03 1.360000000000000E+03 -6.717635066258919E-01
1.520000000000000E+03 1.370000000000000E+03 -6.574923547400611E-01
1.500000000000000E+03 1.380000000000000E+03 -6.432212028542303E-01
1.480000000000000E+03 1.390000000000000E+03 -6.289500509683996E-01
1.460000000000000E+03 1.400000000000000E+03 -6.146788990825687E-01
1.440000000000000E+03 1.410000000000000E+03 -6.004077471967380E-01
1.420000000000000E+03 1.420000000000000E+03 -5.861365953109072E-01
1.400000000000000E+03 1.430000000000000E+03 -5.718654434250764E-01
1.380000000000000E+03 1.440000000000000E+03 -5.575942915392456E-01
1.360000000000000E+03 1.450000000000000E+03 -5.433231396534148E-01
1.340000000000000E+03 1.460000000000000E+03 -5.290519877675841E-01
1.320000000000000E+03 1.470000000000000E+03 -5.147808358817532E-01
1.300000000000000E+03 1.480000000000000E+03 -5.005096839959224E-01
1.280000000000000E+03 1.490000000000000E+03 -4.862385321100917E-01
1.260000000000000E+03 1.500000000000000E+03 -4.719673802242609E-01
1.240000000000000E+03 1.510000000000000E+03 -4.576962283384300E-01
1.220000000000000E+03 1.520000000000000E+03 -4.434250764525993E-01
1.200000000000000E+03 1.530000000000000E+03 -4.291539245667685E-01
1.180000000000000E+03 1.540000000000000E+03 -4.148827726809378E-01
1.160000000000000E+03 1.550000000000000E+03 -4.006116207951069E-01
1.140000000000000E+03 1.560000000000000E+03 -3.863404689092762E-01
1.120000000000000E+03 1.570000000000000E+03 -3.720693170234454E-01
1.100000000000000E+03 1.580000000000000E+03 -3.577981651376146E-01
1.080000000000000E+03 1.590000000000000E+03 -3.435270132517838E-01
1.060000000000000E+03 1.600000000000000E+03 -3.292558613659530E-01
1.040000000000000E+03 1.610000000000000E+03 -3.149847094801222E-01
1.020000000000000E+03 1.620000000000000E+03 -3.007135575942914E-01
1.000000000000000E+03 1.630000000000000E+03 -2.864424057084607E-01
9.800000000000000E+02 1.640000000000000E+03 -2.721712538226299E-01
9.600000000000000E+02 1.650000000000000E+03 -2.579001019367991E-01
9.400000000000000E+02 1.660000000000000E+03 -2.436289500509683E-01
9.200000000000000E+02 1.670000000000000E+03 -2.293577981651375E-01
9.000000000000000E+02 1.680000000000000E+03 -2.150866462793067E-01
8.800000000000000E+02 1.690000000000000E+03 -2.008154943934759E-01
8.600000000000000E+02 1.700000000000000E+03 -1.865443425076452E-01
8.400000000000000E+02 1.710000000000000E+03 -1.722731906218143E-01
8.200000000000000E+02 1.720000000000000E+03 -1.580020387359836E-01
8.000000000000000E+02 1.730000000000000E+03 -1.437308868501528E-01
7.800000000000000E+02 1.740000000000000E+03 -1.294597349643219E-01
7.600000000000000E+02 1.750000000000000E+03 -1.151885830784912E-01
7.400000000000000E+02 1.760000000000000E+03 -1.009174311926604E-01
7.200000000000000E+02 1.770000000000000E+03 -8.664627930682967E-02
7.000000000000000E+02 1.780000000000000E+03 -7.237512742099883E-02
6.800000000000000E+02 1.790000000000000E+03 -5.810397553516811E-02
6.600000000000000E+02 1.800000000000000E+03 -4.383282364933727E-02
6.400000000000000E+02 1.810000000000000E+03 -2.956167176350644E-02
6.200000000000000E+02 1.820000000000000E+03 -1.529051987767571E-02
6.000000000000000E+02 1.830000000000000E+03 -1.019367991844877E-03
5.800000000000000E+02 1.840000000000000E+03 1.325178389398585E-02
5.600000000000000E+02 1.850000000000000E+03 2.752293577981657E-02
5.400000000000000E+02 1.860000000000000E+03 4.179408766564752E-02
5.200000000000000E+02 1.870000000000000E+03 5.606523955147824E-02
5.000000000000000E+02 1.880000000000000E+03 7.033639143730896E-02
4.800000000000000E+02 1.890000000000000E+03 8.460754332313991E-02
4.600000000000000E+02 1.900000000000000E+03 9.887869520897064E-02
4.400000000000000E+02 1.910000000000000E+03 1.131498470948014E-01
4.200000000000000E+02 1.920000000000000E+03 1.274209989806321E-01
4.000000000000000E+02 1.930000000000000E+03 1.416921508664630E-01
3.800000000000000E+02 1.940000000000000E+03 1.559633027522938E-01
3.600000000000000E+02 1.950000000000000E+03 1.702344546381245E-01
3.400000000000000E+02 1.960000000000000E+03 1.845056065239554E-01
3.200000000000000E+02 1.970000000000000E+03 1.987767584097861E-01
3.000000000000000E+02 1.980000000000000E+03 2.130479102956169E-01
2.800000000000000E+02 1.990000000000000E+03 2.273190621814476E-01
2.600000000000000E+02 2.000000000000000E+03 2.415902140672785E-01
2.000000000000000E+03 1.140000000000000E+03 -1.000000000000000E+00
1.980000000000000E+03 1.150000000000000E+03 -9.857288481141692E-01
1.960000000000000E+03 1.160000000000000E+03 -9.714576962283384E-01
1.940000000000000E+03 1.170000000000000E+03 -9.571865443425076E-01
1.920000000000000E+03 1.180000000000000E+03 -9.429153924566769E-01
1.900000000000000E+03 1.190000000000000E+03 -9.286442405708460E-01
1.880000000000000E+03 1.200000000000000E+03 -9.143730886850153E-01
1.860000000000000E+03 1.210000000000000E+03 -9.001019367991845E-01
1.840000000000000E+03 1.220000000000000E+03 -8.858307849133538E-01
1.820000000000000E+03 1.230000000000000E+03 -8.715596330275229E-01
1.800000000000000E+03 1.240000000000000E+03 -8.572884811416921E-01
1.780000000000000E+03 1.250000000000000E+03 -8.430173292558614E-01
1.760000000000000E+03 1.260000000000000E+03 -8.287461773700305E-01
1.740000000000000E+03 1.270000000000000E+03 -8.144750254841998E-01
1.720000000000000E+03 1.280000000000000E+03 -8.002038735983690E-01
1.700000000000000E+03 1.290000000000000E+03 -7.859327217125383E-01
1.680000000000000E+03 1.300000000000000E+03 -7.716615698267074E-01
1.660000000000000E+03 1.310000000000000E+03 -7.573904179408766E-01
1.640000000000000E+03 1.320000000000000E+03 -7.431192660550459E-01
1.620000000000000E+03 1.330000000000000E+03 -7.288481141692150E-01
1.600000000000000E+03 1.340000000000000E+03 -7.145769622833842E-01
1.580000000000000E+03 1.350000000000000E+03 -7.003058103975535E-01
1.560000000000000E+03 1.360000000000000E+03 -6.860346585117227E-01
1.540000000000000E+03 1.370000000000000E+03 -6.717635066258919E-01
1.520000000000000E+03 1.380000000000000E+03 -6.574923547400611E-01
1.500000000000000E+03 1.390000000000000E+03 -6.432212028542303E-01
1.480000000000000E+03 1.400000000000000E+03 -6.289500509683996E-01
1.460000000000000E+03 1.410000000000000E+03 -6.146788990825687E-01
1.440000000000000E+03 1.420000000000000E+03 -6.004077471967380E-01
1.420000000000000E+03 1.430000000000000E+03 -5.861365953109072E-01
1.400000000000000E+03 1.440000000000000E+03 -5.718654434250764E-01
1.380000000000000E+03 1.450000000000000E+03 -5.575942915392456E-01
1.360000000000000E+03 1.460000000000000E+03 -5.433231396534148E-01
1.340000000000000E+03 1.470000000000000E+03 -5.290519877675841E-01
1.320000000000000E+03 1.480000000000000E+03 -5.147808358817532E-01
1.300000000000000E+03 1.490000000000000E+03 -5.005096839959224E-01
1.280000000000000E+03 1.500000000000000E+03 -4.862385321100917E-01
1.260000000000000E+03 1.510000000000000E+03 -4.719673802242609E-01
1.240000000000000E+03 1.520000000000000E+03 -4.576962283384300E-01
1.220000000000000E+03 1.530000000000000E+03 -4.434250764525993E-01
1.200000000000000E+03 1.540000000000000E+03 -4.291539245667685E-01
1.180000000000000E+03 1.550000000000000E+03 -4.148827726809378E-01
1.160000000000000E+03 1.560000000000000E+03 -4.006116207951069E-01
1.140000000000000E+03 1.570000000000000E+03 -3.863404689092762E-01
1.120000000000000E+03 1.580000000000000E+03 -3.720693170234454E-01
1.100000000000000E+03 1.590000000000000E+03 -3.577981651376146E-01
1.080000000000000E+03 1.600000000000000E+03 -3.435270132517838E-01
1.060000000000000E+03 1.610000000000000E+03 -3.292558613659530E-01
1.040000000000000E+03 1.620000000000000E+03 -3.149847094801222E-01
1.020000000000000E+03 1.630000000000000E+03 -3.007135575942914E-01
1.000000000000000E+03 1.640000000000000E+03 -2.864424057084607E-01
9.800000000000000E+02 1.650000000000000E+03 -2.721712538226299E-01
9.600000000000000E+02 1.660000000000000E+03 -2.579001019367991E-01
9.400000000000000E+02 1.670000000000000E+03 -2.436289500509683E-01
9.200000000000000E+02 1.680000000000000E+03 -2.293577981651375E-01
9.000000000000000E+02 1.690000000000000E+03 -2.150866462793067E-01
8.800000000000000E+02 1.700000000000000E+03 -2.008154943934759E-01
8.600000000000000E+02 1.710000000000000E+03 -1.865443425076452E-01
8.400000000000000E+02 1.720000000000000E+03 -1.722731906218143E-01
8.200000000000000E+02 1.730000000000000E+03 -1.580020387359836E-01
8.000000000000000E+02 1.740000000000000E+03 -1.437308868501528E-01
7.800000000000000E+02 1.750000000000000E+03 -1.294597349643219E-01
7.600000000000000E+02 1.760000000000000E+03 -1.151885830784912E-01
7.400000000000000E+02 1.770000000000000E+03 -1.009174311926604E-01
7.200000000000000E+02 1.780000000000000E+03 -8.664627930682967E-02
7.000000000000000E+02 1.790000000000000E+03 -7.237512742099883E-02
6.800000000000000E+02 1.800000000000000E+03 -5.810397553516811E-02
6.600000000000000E+02 1.810000000000000E+03 -4.383282364933727E-02
6.400000000000000E+02 1.820000000000000E+03 -2.956167176350644E-02
6.200000000000000E+02 1.830000000000000E+03 -1.529051987767571E-02
6.000000000000000E+02 1.840000000000000E+03 -1.019367991844877E-03
5.800000000000000E+02 1.850000000000000E+03 1.325178389398585E-02
5.600000000000000E+02 1.860000000000000E+03 2.752293577981657E-02
5.400000000000000E+02 1.870000000000000E+03 4.179408766564752E-02
5.200000000000000E+02 1.880000000000000E+03 5.606523955147824E-02
5.000000000000000E+02 1.890000000000000E+03 7.033639143730896E-02
4.800000000000000E+02 1.900000000000000E+03 8.460754332313991E-02
4.600000000000000E+02 1.910000000000000E+03 9.887869520897064E-02
4.400000000000000E+02 1.920000000000000E+03 1.131498470948014E-01
4.200000000000000E+02 1.930000000000000E+03 1.274209989806321E-01
4.000000000000000E+02 1.940000000000000E+03 1.416921508664630E-01
3.800000000000000E+02 1.950000000000000E+03 1.559633027522938E-01
3.600000000000000E+02 1.960000000000000E+03 1.702344546381245E-01
3.400000000000000E+02 1.970000000000000E+03 1.845056065239554E-01
3.200000000000000E+02 1.980000000000000E+03 1.987767584097861E-01
3.000000000000000E+02 1.990000000000000E+03 2.130479102956169E-01
2.800000000000000E+02 2.000000000000000E+03 2.273190621814476E-01
2.000000000000000E+03 1.150000000000000E+03 -1.000000000000000E+00
1.980000000000000E+03 1.160000000000000E+03 -9.857288481141692E-01
1.960000000000000E+03 1.170000000000000E+03 -9.714576962283384E-01
1.940000000000000E+03 1.180000000000000E+03 -9.571865443425076E-01
1.920000000000000E+03 1.190000000000000E+03 -9.429153924566769E-01
1.900000000000000E+03 1.200000000000000E+03 -9.286442405708460E-01
1.880000000000000E+03 1.210000000000000E+03 -9.143730886850153E-01
1.860000000000000E+03 1.220000000000000E+03 -9.001019367991845E-01
1.840000000000000E+03 1.230000000000000E+03 -8.858307849133538E-01
1.820000000000000E+03 1.240000000000000E+03 -8.715596330275229E-01
1.800000000000000E+03 1.250000000000000E+03 -8.572884811416921E-01
1.780000000000000E+03 1.260000000000000E+03 -8.430173292558614E-01
1.760000000000000E+03 1.270000000000000E+03 -8.287461773700305E-01
1.740000000000000E+03 1.280000000000000E+03 -8.144750254841998E-01
1.720000000000000E+03 1.290000000000000E+03 -8.002038735983690E-01
1.700000000000000E+03 1.300000000000000E+03 -7.859327217125383E-01
1.680000000000000E+03 1.310000000000000E+03 -7.716615698267074E-01
1.660000000000000E+03 1.320000000000000E+03 -7.573904179408766E-01
1.640000000000000E+03 1.330000000000000E+03 -7.431192660550459E-01
1.620000000000000E+03 1.340000000000000E+03 -7.288481141692150E-01
1.600000000000000E+03 1.350000000000000E+03 -7.145769622833842E-01
1.580000000000000E+03 1.360000000000000E+03 -7.003058103975535E-01
1.560000000000000E+03 1.370000000000000E+03 -6.860346585117227E-01
1.540000000000000E+03 1.380000000000000E+03 -6.717635066258919E-01
1.520000000000000E+03 1.390000000000000E+03 -6.574923547400611E-01
1.500000000000000E+03 1.400000000000000E+03 -6.432212028542303E-01
1.480000000000000E+03 1.410000000000000E+03 -6.289500509683996E-01
1.460000000000000E+03 1.420000000000000E+03 -6.146788990825687E-01
1.440000000000000E+03 1.430000000000000E+03 -6.004077471967380E-01
1.420000000000000E+03 1.440000000000000E+03 -5.861365953109072E-01
1.400000000000000E+03 1.450000000000000E+03 -5.718654434250764E-01
1.380000000000000E+03 1.460000000000000E+03 -5.575942915392456E-01
1.360000000000000E+03 1.470000000000000E+03 -5.433231396534148E-01
1.340000000000000E+03 1.480000000000000E+03 -5.290519877675841E-01
1.320000000000000E+03 1.490000000000000E+03 -5.147808358817532E-01
1.300000000000000E+03 1.500000000000000E+03 -5.005096839959224E-01
1.280000000000000E+03 1.510000000000000E+03 -4.862385321100917E-01
1.260000000000000E+03 1.520000000000000E+03 -4.719673802242609E-01
1.240000000000000E+03 1.530000000000000E+03 -4.576962283384300E-01
1.220000000000000E+03 1.540000000000000E+03 -4.434250764525993E-01
1.200000000000000E+03 1.550000000000000E+03 -4.291539245667685E-01
1.180000000000000E+03 1.560000000000000E+03 -4.148827726809378E-01
1.160000000000000E+03 1.570000000000000E+03 -4.006116207951069E-01
1.140000000000000E+03 1.580000000000000E+03 -3.863404689092762E-01
1.120000000000000E+03 1.590000000000000E+03 -3.720693170234454E-01
1.100000000000000E+03 1.600000000000000E+03 -3.577981651376146E-01
1.080000000000000E+03 1.610000000000000E+03 -3.435270132517838E-01
1.060000000000000E+03 1.620000000000000E+03 -3.292558613659530E-01
1.040000000000000E+03 1.630000000000000E+03 -3.149847094801222E-01
1.020000000000000E+03 1.640000000000000E+03 -3.007135575942914E-01
1.000000000000000E+03 1.650000000000000E+03 -2.864424057084607E-01
9.800000000000000E+02 1.660000000000000E+03 -2.721712538226299E-01
9.600000000000000E+02 1.670000000000000E+03 -2.579001019367991E-01
9.400000000000000E+02 1.680000000000000E+03 -2.436289500509683E-01
9.200000000000000E+02 1.690000000000000E+03 -2.293577981651375E-01
9.000000000000000E+02 1.700000000000000E+03 -2.150866462793067E-01
8.800000000000000E+02 1.710000000000000E+03 -2.008154943934759E-01
8.600000000000000E+02 1.720000000000000E+03 -1.865443425076452E-01
8.400000000000000E+02 1.730000000000000E+03 -1.722731906218143E-01
8.200000000000000E+02 1.740000000000000E+03 -1.580020387359836E-01
8.000000000000000E+02 1.750000000000000E+03 -1.437308868501528E-01
7.800000000000000E+02 1.760000000000000E+03 -1.294597349643219E-01
7.600000000000000E+02 1.770000000000000E+03 -1.151885830784912E-01
7.400000000000000E+02 1.780000000000000E+03 -1.009174311926604E-01
7.200000000000000E+02 1.790000000000000E+03 -8.664627930682967E-02
7.000000000000000E+02 1.800000000000000E+03 -7.237512742099883E-02
6.800000000000000E+02 1.810000000000000E+03 -5.810397553516811E-02
6.600000000000000E+02 1.820000000000000E+03 -4.383282364933727E-02
6.400000000000000E+02 1.830000000000000E+03 -2.956167176350644E-02
6.200000000000000E+02 1.840000000000000E+03 -1.529051987767571E-02
6.000000000000000E+02 1.850000000000000E+03 -1.019367991844877E-03
5.800000000000000E+02 1.860000000000000E+03 1.325178389398585E-02
5.600000000000000E+02 1.870000000000000E+03 2.752293577981657E-02
5.400000000000000E+02 1.880000000000000E+03 4.179408766564752E-02
5.200000000000000E+02 1.890000000000000E+03 5.606523955147824E-02
5.000000000000000E+02 1.900000000000000E+03 7.033639143730896E-02
4.800000000000000E+02 1.910000000000000E+03 8.460754332313991E-02
4.600000000000000E+02 1.920000000000000E+03 9.887869520897064E-02
4.400000000000000E+02 1.930000000000000E+03 1.131498470948014E-01
4.200000000000000E+02 1.940000000000000E+03 1.274209989806321E-01
4.000000000000000E+02 1.950000000000000E+03 1.416921508664630E-01
3.800000000000000E+02 1.960000000000000E+03 1.559633027522938E-01
3.600000000000000E+02 1.970000000000000E+03 1.702344546381245E-01
3.400000000000000E+02 1.980000000000000E+03 1.845056065239554E-01
3.200000000000000E+02 1.990000000000000E+03 1.987767584097861E-01
3.000000000000000E+02 2.000000000000000E+03 2.130479102956169E-01
2.000000000000000E+03 1.160000000000000E+03 -1.000000000000000E+00
1.980000000000000E+03 1.170000000000000E+03 -9.857288481141692E-01
1.960000000000000E+03 1.180000000000000E+03 -9.714576962283384E-01
1.940000000000000E+03 1.190000000000000E+03 -9.571865443425076E-01
1.920000000000000E+03 1.200000000000000E+03 -9.429153924566769E-01
1.900000000000000E+03 1.210000000000000E+03 -9.286442405708460E-01
1.880000000000000E+03 1.220000000000000E+03 -9.143730886850153E-01
1.860000000000000E+03 1.230000000000000E+03 -9.001019367991845E-01
1.840000000000000E+03 1.240000000000000E+03 -8.858307849133538E-01
1.820000000000000E+03 1.250000000000000E+03 -8.715596330275229E-01
1.800000000000000E+03 1.260000000000000E+03 -8.572884811416921E-01
1.780000000000000E+03 1.270000000000000E+03 -8.430173292558614E-01
1.760000000000000E+03 1.280000000000000E+03 -8.287461773700305E-01
1.740000000000000E+03 1.290000000000000E+03 -8.144750254841998E-01
1.720000000000000E+03 1.300000000000000E+03 -8.002038735983690E-01
1.700000000000000E+03 1.310000000000000E+03 -7.859327217125383E-01
1.680000000000000E+03 1.320000000000000E+03 -7.716615698267074E-01
1.660000000000000E+03 1.330000000000000E+03 -7.573904179408766E-01
1.640000000000000E+03 1.340000000000000E+03 -7.431192660550459E-01
1.620000000000000E+03 1.350000000000000E+03 -7.288481141692150E-01
1.600000000000000E+03 1.360000000000000E+03 -7.145769622833842E-01
1.580000000000000E+03 1.370000000000000E+03 -7.003058103975535E-01
1.560000000000000E+03 1.380000000000000E+03 -6.860346585117227E-01
1.540000000000000E+03 1.390000000000000E+03 -6.717635066258919E-01
1.520000000000000E+03 1.400000000000000E+03 -6.574923547400611E-01
1.500000000000000E+03 1.410000000000000E+03 -6.432212028542303E-01
1.480000000000000E+03 1.420000000000000E+03 -6.289500509683996E-01
1.460000000000000E+03 1.430000000000000E+03 -6.146788990825687E-01
1.440000000000000E+03 1.440000000000000E+03 -6.004077471967380E-01
1.420000000000000E+03 1.450000000000000E+03 -5.861365953109072E-01
1.400000000000000E+03 1.460000000000000E+03 -5.718654434250764E-01
1.380000000000000E+03 1.470000000000000E+03 -5.575942915392456E-01
1.360000000000000E+03 1.480000000000000E+03 -5.433231396534148E-01
1.340000000000000E+03 1.490000000000000E+03 -5.290519877675841E-01
1.320000000000000E+03 1.500000000000000E+03 -5.147808358817532E-01
1.300000000000000E+03 1.510000000000000E+03 -5.005096839959224E-01
1.280000000000000E+03 1.520000000000000E+03 -4.862385321100917E-01
1.260000000000000E+03 1.530000000000000E+03 -4.719673802242609E-01
1.240000000000000E+03 1.540000000000000E+03 -4.576962283384300E-01
1.220000000000000E+03 1.550000000000000E+03 -4.434250764525993E-01
1.200000000000000E+03 1.560000000000000E+03 -4.291539245667685E-01
1.180000000000000E+03 1.570000000000000E+03 -4.148827726809378E-01
1.160000000000000E+03 1.580000000000000E+03 -4.006116207951069E-01
1.140000000000000E+03 1.590000000000000E+03 -3.863404689092762E-01
1.120000000000000E+03 1.600000000000000E+03 -3.720693170234454E-01
1.100000000000000E+03 1.610000000000000E+03 -3.577981651376146E-01
1.080000000000000E+03 1.620000000000000E+03 -3.435270132517838E-01
1.060000000000000E+03 1.630000000000000E+03 -3.292558613659530E-01
1.040000000000000E+03 1.640000000000000E+03 -3.149847094801222E-01
1.020000000000000E+03 1.650000000000000E+03 -3.007135575942914E-01
1.000000000000000E+03 1.660000000000000E+03 -2.864424057084607E-01
9.800000000000000E+02 1.670000000000000E+03 -2.721712538226299E-01
9.600000000000000E+02 1.680000000000000E+03 -2.579001019367991E-01
9.400000000000000E+02 1.690000000000000E+03 -2.436289500509683E-01
9.200000000000000E+02 1.700000000000000E+03 -2.293577981651375E-01
9.000000000000000E+02 1.710000000000000E+03 -2.150866462793067E-01
8.800000000000000E+02 1.720000000000000E+03 -2.008154943934759E-01
8.600000000000000E+02 1.730000000000000E+03 -1.865443425076452E-01
8.400000000000000E+02 1.740000000000000E+03 -1.722731906218143E-01
8.200000000000000E+02 1.750000000000000E+03 -1.580020387359836E-01
8.000000000000000E+02 1.760000000000000E+03 -1.437308868501528E-01
7.800000000000000E+02 1.770000000000000E+03 -1.294597349643219E-01
7.600000000000000E+02 1.780000000000000E+03 -1.151885830784912E-01
7.400000000000000E+02 1.790000000000000E+03 -1.009174311926604E-01
7.200000000000000E+02 1.800000000000000E+03 -8.664627930682967E-02
7.000000000000000E+02 1.810000000000000E+03 -7.237512742099883E-02
6.800000000000000E+02 1.820000000000000E+03 -5.810397553516811E-02
6.600000000000000E+02 1.830000000000000E+03 -4.383282364933727E-02
6.400000000000000E+02 1.840000000000000E+03 -2.956167176350644E-02
6.200000000000000E+02 1.850000000000000E+03 -1.529051987767571E-02
6.000000000000000E+02 1.860000000000000E+03 -1.019367991844877E-03
5.800000000000000E+02 1.870000000000000E+03 1.325178389398585E-02
5.600000000000000E+02 1.880000000000000E+03 2.752293577981657E-02
5.400000000000000E+02 1.890000000000000E+03 4.179408766564752E-02
5.200000000000000E+02 1.900000000000000E+03 5.606523955147824E-02
5.000000000000000E+02 1.910000000000000E+03 7.033639143730896E-02
4.800000000000000E+02 1.920000000000000E+03 8.460754332313991E-02
4.600000000000000E+02 1.930000000000000E+03 9.887869520897064E-02
4.400000000000000E+02 1.940000000000000E+03 1.131498470948014E-01
4.200000000000000E+02 1.950000000000000E+03 1.274209989806321E-01
4.000000000000000E+02 1.960000000000000E+03 1.416921508664630E-01
3.800000000000000E+02 1.970000000000000E+03 1.559633027522938E-01
3.600000000000000E+02 1.980000000000000E+03 1.702344546381245E-01
3.400000000000000E+02 1.990000000000000E+03 1.845056065239554E-01
3.200000000000000E+02 2.000000000000000E+03 1.987767584097861E-01
2.000000000000000E+03 1.170000000000000E+03 -1.000000000000000E+00
1.980000000000000E+03 1.180000000000000E+03 -9.857288481141692E-01
1.960000000000000E+03 1.190000000000000E+03 -9.714576962283384E-01
1.940000000000000E+03 1.200000000000000E+03 -9.571865443425076E-01
1.920000000000000E+03 1.210000000000000E+03 -9.429153924566769E-01
1.900000000000000E+03 1.220000000000000E+03 -9.286442405708460E-01
1.880000000000000E+03 1.230000000000000E+03 -9.143730886850153E-01
1.860000000000000E+03 1.240000000000000E+03 -9.001019367991845E-01
1.840000000000000E+03 1.250000000000000E+03 -8.858307849133538E-01
1.820000000000000E+03 1.260000000000000E+03 -8.715596330275229E-01
1.800000000000000E+03 1.270000000000000E+03 -8.572884811416921E-01
1.780000000000000E+03 1.280000000000000E+03 -8.430173292558614E-01
1.760000000000000E+03 1.290000000000000E+03 -8.287461773700305E-01
1.740000000000000E+03 1.300000000000000E+03 -8.144750254841998E-01
1.720000000000000E+03 1.310000000000000E+03 -8.002038735983690E-01
1.700000000000000E+03 1.320000000000000E+03 -7.859327217125383E-01
1.680000000000000E+03 1.330000000000000E+03 -7.716615698267074E-01
1.660000000000000E+03 1.340000000000000E+03 -7.573904179408766E-01
1.640000000000000E+03 1.350000000000000E+03 -7.431192660550459E-01
1.620000000000000E+03 1.360000000000000E+03 -7.288481141692150E-01
1.600000000000000E+03 1.370000000000000E+03 -7.145769622833842E-01
1.580000000000000E+03 1.380000000000000E+03 -7.003058103975535E-01
1.560000000000000E+03 1.390000000000000E+03 -6.860346585117227E-01
1.540000000000000E+03 1.400000000000000E+03 -6.717635066258919E-01
1.520000000000000E+03 1.410000000000000E+03 -6.574923547400611E-01
1.500000000000000E+03 1.420000000000000E+03 -6.432212028542303E-01
1.480000000000000E+03 1.430000000000000E+03 -6.289500509683996E-01
1.460000000000000E+03 1.440000000000000E+03 -6.146788990825687E-01
1.440000000000000E+03 1.450000000000000E+03 -6.004077471967380E-01
1.420000000000000E+03 1.460000000000000E+03 -5.861365953109072E-01
1.400000000000000E+03 1.470000000000000E+03 -5.718654434250764E-01
1.380000000000000E+03 1.480000000000000E+03 -5.575942915392456E-01
1.360000000000000E+03 1.490000000000000E+03 -5.433231396534148E-01
1.340000000000000E+03 1.500000000000000E+03 -5.290519877675841E-01
1.320000000000000E+03 1.510000000000000E+03 -5.147808358817532E-01
1.300000000000000E+03 1.520000000000000E+03 -5.005096839959224E-01
1.280000000000000E+03 1.530000000000000E+03 -4.862385321100917E-01
1.260000000000000E+03 1.540000000000000E+03 -4.719673802242609E-01
1.240000000000000E+03 1.550000000000000E+03 -4.576962283384300E-01
1.220000000000000E+03 1.560000000000000E+03 -4.434250764525993E-01
1.200000000000000E+03 1.570000000000000E+03 -4.291539245667685E-01
1.180000000000000E+03 1.580000000000000E+03 -4.148827726809378E-01
1.160000000000000E+03 1.590000000000000E+03 -4.006116207951069E-01
1.140000000000000E+03 1.600000000000000E+03 -3.863404689092762E-01
1.120000000000000E+03 1.610000000000000E+03 -3.720693170234454E-01
1.100000000000000E+03 1.620000000000000E+03 -3.577981651376146E-01
1.080000000000000E+03 1.630000000000000E+03 -3.435270132517838E-01
1.060000000000000E+03 1.640000000000000E+03 -3.292558613659530E-01
1.040000000000000E+03 1.650000000000000E+03 -3.149847094801222E-01
1.020000000000000E+03 1.660000000000000E+03 -3.007135575942914E-01
1.000000000000000E+03 1.670000000000000E+03 -2.864424057084607E-01
9.800000000000000E+02 1.680000000000000E+03 -2.721712538226299E-01
9.600000000000000E+02 1.690000000000000E+03 -2.579001019367991E-01
9.400000000000000E+02 1.700000000000000E+03 -2.436289500509683E-01
9.200000000000000E+02 1.710000000000000E+03 -2.293577981651375E-01
9.000000000000000E+02 1.720000000000000E+03 -2.150866462793067E-01
8.800000000000000E+02 1.730000000000000E+03 -2.008154943934759E-01
8.600000000000000E+02 1.740000000000000E+03 -1.865443425076452E-01
8.400000000000000E+02 1.750000000000000E+03 -1.722731906218143E-01
8.200000000000000E+02 1.760000000000000E+03 -1.580020387359836E-01
8.000000000000000E+02 1.770000000000000E+03 -1.437308868501528E-01
7.800000000000000E+02 1.780000000000000E+03 -1.294597349643219E-01
7.600000000000000E+02 1.790000000000000E+03 -1.151885830784912E-01
7.400000000000000E+02 1.800000000000000E+03 -1.009174311926604E-01
7.200000000000000E+02 1.810000000000000E+03 -8.664627930682967E-02
7.000000000000000E+02 1.820000000000000E+03 -7.237512742099883E-02
6.800000000000000E+02 1.830000000000000E+03 -5.810397553516811E-02
6.600000000000000E+02 1.840000000000000E+03 -4.383282364933727E-02
6.400000000000000E+02 1.850000000000000E+03 -2.956167176350644E-02
6.200000000000000E+02 1.860000000000000E+03 -1.529051987767571E-02
6.000000000000000E+02 1.870000000000000E+03 -1.019367991844877E-03
5.800000000000000E+02 1.880000000000000E+03 1.325178389398585E-02
5.600000000000000E+02 1.890000000000000E+03 2.752293577981657E-02
5.400000000000000E+02 1.900000000000000E+03 4.179408766564752E-02
5.200000000000000E+02 1.910000000000000E+03 5.606523955147824E-02
5.000000000000000E+02 1.920000000000000E+03 7.033639143730896E-02
4.800000000000000E+02 1.930000000000000E+03 8.460754332313991E-02
4.600000000000000E+02 1.940000000000000E+03 9.887869520897064E-02
4.400000000000000E+02 1.950000000000000E+03 1.131498470948014E-01
4.200000000000000E+02 1.960000000000000E+03 1.274209989806321E-01
4.000000000000000E+02 1.970000000000000E+03 1.416921508664630E-01
3.800000000000000E+02 1.980000000000000E+03 1.559633027522938E-01
3.600000000000000E+02 1.990000000000000E+03 1.702344546381245E-01
3.400000000000000E+02 2.000000000000000E+03 1.845056065239554E-01
2.000000000000000E+03 1.180000000000000E+03 -1.000000000000000E+00
1.980000000000000E+03 1.190000000000000E+03 -9.857288481141692E-01
1.960000000000000E+03 1.200000000000000E+03 -9.714576962283384E-01
1.940000000000000E+03 1.210000000000000E+03 -9.571865443425076E-01
1.920000000000000E+03 1.220000000000000E+03 -9.429153924566769E-01
1.900000000000000E+03 1.230000000000000E+03 -9.286442405708460E-01
1.880000000000000E+03 1.240000000000000E+03 -9.143730886850153E-01
1.860000000000000E+03 1.250000000000000E+03 -9.001019367991845E-01
1.840000000000000E+03 1.260000000000000E+03 -8.858307849133538E-01
1.820000000000000E+03 1.270000000000000E+03 -8.715596330275229E-01
1.800000000000000E+03 1.280000000000000E+03 -8.572884811416921E-01
1.780000000000000E+03 1.290000000000000E+03 -8.430173292558614E-01
1.760000000000000E+03 1.300000000000000E+03 -8.287461773700305E-01
1.740000000000000E+03 1.310000000000000E+03 -8.144750254841998E-01
1.720000000000000E+03 1.320000000000000E+03 -8.002038735983690E-01
1.700000000000000E+03 1.330000000000000E+03 -7.859327217125383E-01
1.680000000000000E+03 1.340000000000000E+03 -7.716615698267074E-01
1.660000000000000E+03 1.350000000000000E+03 -7.573904179408766E-01
1.640000000000000E+03 1.360000000000000E+03 -7.431192660550459E-01
1.620000000000000E+03 1.370000000000000E+03 -7.288481141692150E-01
1.600000000000000E+03 1.380000000000000E+03 -7.145769622833842E-01
1.580000000000000E+03 1.390000000000000E+03 -7.003058103975535E-01
1.560000000000000E+03 1.400000000000000E+03 -6.860346585117227E-01
1.540000000000000E+03 1.410000000000000E+03 -6.717635066258919E-01
1.520000000000000E+03 1.420000000000000E+03 -6.574923547400611E-01
1.500000000000000E+03 1.430000000000000E+03 -6.432212028542303E-01
1.480000000000000E+03 1.440000000000000E+03 -6.289500509683996E-01
1.460000000000000E+03 1.450000000000000E+03 -6.146788990825687E-01
1.440000000000000E+03 1.460000000000000E+03 -6.004077471967380E-01
1.420000000000000E+03 1.470000000000000E+03 -5.861365953109072E-01
1.400000000000000E+03 1.480000000000000E+03 -5.718654434250764E-01
1.380000000000000E+03 1.490000000000000E+03 -5.575942915392456E-01
1.360000000000000E+03 1.500000000000000E+03 -5.433231396534148E-01
1.340000000000000E+03 1.510000000000000E+03 -5.290519877675841E-01
1.320000000000000E+03 1.520000000000000E+03 -5.147808358817532E-01
1.300000000000000E+03 1.530000000000000E+03 -5.005096839959224E-01
1.280000000000000E+03 1.540000000000000E+03 -4.862385321100917E-01
1.260000000000000E+03 1.550000000000000E+03 -4.719673802242609E-01
1.240000000000000E+03 1.560000000000000E+03 -4.576962283384300E-01
1.220000000000000E+03 1.570000000000000E+03 -4.434250764525993E-01
1.200000000000000E+03 1.580000000000000E+03 -4.291539245667685E-01
1.180000000000000E+03 1.590000000000000E+03 -4.148827726809378E-01
1.160000000000000E+03 1.600000000000000E+03 -4.006116207951069E-01
1.140000000000000E+03 1.610000000000000E+03 -3.863404689092762E-01
1.120000000000000E+03 1.620000000000000E+03 -3.720693170234454E-01
1.100000000000000E+03 1.630000000000000E+03 -3.577981651376146E-01
1.080000000000000E+03 1.640000000000000E+03 -3.435270132517838E-01
1.060000000000000E+03 1.650000000000000E+03 -3.292558613659530E-01
1.040000000000000E+03 1.660000000000000E+03 -3.149847094801222E-01
1.020000000000000E+03 1.670000000000000E+03 -3.007135575942914E-01
1.000000000000000E+03 1.680000000000000E+03 -2.864424057084607E-01
9.800000000000000E+02 1.690000000000000E+03 -2.721712538226299E-01
9.600000000000000E+02 1.700000000000000E+03 -2.579001019367991E-01
9.400000000000000E+02 1.710000000000000E+03 -2.436289500509683E-01
9.200000000000000E+02 1.720000000000000E+03 -2.293577981651375E-01
9.000000000000000E+02 1.730000000000000E+03 -2.150866462793067E-01
8.800000000000000E+02 1.740000000000000E+03 -2.008154943934759E-01
8.600000000000000E+02 1.750000000000000E+03 -1.865443425076452E-01
8.400000000000000E+02 1.760000000000000E+03 -1.722731906218143E-01
8.200000000000000E+02 1.770000000000000E+03 -1.580020387359836E-01
8.000000000000000E+02 1.780000000000000E+03 -1.437308868501528E-01
7.800000000000000E+02 1.790000000000000E+03 -1.294597349643219E-01
7.600000000000000E+02 1.800000000000000E+03 -1.151885830784912E-01
7.400000000000000E+02 1.810000000000000E+03 -1.009174311926604E-01
7.200000000000000E+02 1.820000000000000E+03 -8.664627930682967E-02
7.000000000000000E+02 1.830000000000000E+03 -7.237512742099883E-02
6.800000000000000E+02 1.840000000000000E+03 -5.810397553516811E-02
6.600000000000000E+02 1.850000000000000E+03 -4.383282364933727E-02
6.400000000000000E+02 1.860000000000000E+03 -2.956167176350644E-02
6.200000000000000E+02 1.870000000000000E+03 -1.529051987767571E-02
6.000000000000000E+02 1.880000000000000E+03 -1.019367991844877E-03
5.800000000000000E+02 1.890000000000000E+03 1.325178389398585E-02
5.600000000000000E+02 1.900000000000000E+03 2.752293577981657E-02
5.400000000000000E+02 1.910000000000000E+03 4.179408766564752E-02
5.200000000000000E+02 1.920000000000000E+03 5.606523955147824E-02
5.000000000000000E+02 1.930000000000000E+03 7.033639143730896E-02
4.800000000000000E+02 1.940000000000000E+03 8.460754332313991E-02
4.600000000000000E+02 1.950000000000000E+03 9.887869520897064E-02
4.400000000000000E+02 1.960000000000000E+03 1.131498470948014E-01
4.200000000000000E+02 1.970000000000000E+03 1.274209989806321E-01
4.000000000000000E+02 1.980000000000000E+03 1.416921508664630E-01
3.800000000000000E+02 1.990000000000000E+03 1.559633027522938E-01
3.600000000000000E+02 2.000000000000000E+03 1.702344546381245E-01
2.000000000000000E+03 1.190000000000000E+03 -1.000000000000000E+00
1.980000000000000E+03 1.200000000000000E+03 -9.857288481141692E-01
1.960000000000000E+03 1.210000000000000E+03 -9.714576962283384E-01
1.940000000000000E+03 1.220000000000000E+03 -9.571865443425076E-01
1.920000000000000E+03 1.230000000000000E+03 -9.429153924566769E-01
1.900000000000000E+03 1.240000000000000E+03 -9.286442405708460E-01
1.880000000000000E+03 1.250000000000000E+03 -9.143730886850153E-01
1.860000000000000E+03 1.260000000000000E+03 -9.001019367991845E-01
1.840000000000000E+03 1.270000000000000E+03 -8.858307849133538E-01
1.820000000000000E+03 1.280000000000000E+03 -8.715596330275229E-01
1.800000000000000E+03 1.290000000000000E+03 -8.572884811416921E-01
1.780000000000000E+03 1.300000000000000E+03 -8.430173292558614E-01
1.760000000000000E+03 1.310000000000000E+03 -8.287461773700305E-01
1.740000000000000E+03 1.320000000000000E+03 -8.144750254841998E-01
1.720000000000000E+03 1.330000000000000E+03 -8.002038735983690E-01
1.700000000000000E+03 1.340000000000000E+03 -7.859327217125383E-01
1.680000000000000E+03 1.350000000000000E+03 -7.716615698267074E-01
1.660000000000000E+03 1.360000000000000E+03 -7.573904179408766E-01
1.640000000000000E+03 1.370000000000000E+03 -7.431192660550459E-01
1.620000000000000E+03 1.380000000000000E+03 -7.288481141692150E-01
1.600000000000000E+03 1.390000000000000E+03 -7.145769622833842E-01
1.580000000000000E+03 1.400000000000000E+03 -7.003058103975535E-01
1.560000000000000E+03 1.410000000000000E+03 -6.860346585117227E-01
1.540000000000000E+03 1.420000000000000E+03 -6.717635066258919E-01
1.520000000000000E+03 1.430000000000000E+03 -6.574923547400611E-01
1.500000000000000E+03 1.440000000000000E+03 -6.432212028542303E-01
1.480000000000000E+03 1.450000000000000E+03 -6.289500509683996E-01
1.460000000000000E+03 1.460000000000000E+03 -6.146788990825687E-01
1.440000000000000E+03 1.470000000000000E+03 -6.004077471967380E-01
1.420000000000000E+03 1.480000000000000E+03 -5.861365953109072E-01
1.400000000000000E+03 1.490000000000000E+03 -5.718654434250764E-01
1.380000000000000E+03 1.500000000000000E+03 -5.575942915392456E-01
1.360000000000000E+03 1.510000000000000E+03 -5.433231396534148E-01
1.340000000000000E+03 1.520000000000000E+03 -5.290519877675841E-01
1.320000000000000E+03 1.530000000000000E+03 -5.147808358817532E-01
1.300000000000000E+03 1.540000000000000E+03 -5.005096839959224E-01
1.280000000000000E+03 1.550000000000000E+03 -4.862385321100917E-01
1.260000000000000E+03 1.560000000000000E+03 -4.719673802242609E-01
1.240000000000000E+03 1.570000000000000E+03 -4.576962283384300E-01
1.220000000000000E+03 1.580000000000000E+03 -4.434250764525993E-01
1.200000000000000E+03 1.590000000000000E+03 -4.291539245667685E-01
1.180000000000000E+03 1.600000000000000E+03 -4.148827726809378E-01
1.160000000000000E+03 1.610000000000000E+03 -4.006116207951069E-01
1.140000000000000E+03 1.620000000000000E+03 -3.863404689092762E-01
1.120000000000000E+03 1.630000000000000E+03 -3.720693170234454E-01
1.100000000000000E+03 1.640000000000000E+03 -3.577981651376146E-01
1.080000000000000E+03 1.650000000000000E+03 -3.435270132517838E-01
1.060000000000000E+03 1.660000000000000E+03 -3.292558613659530E-01
1.040000000000000E+03 1.670000000000000E+03 -3.149847094801222E-01
1.020000000000000E+03 1.680000000000000E+03 -3.007135575942914E-01
1.000000000000000E+03 1.690000000000000E+03 -2.864424057084607E-01
9.800000000000000E+02 1.700000000000000E+03 -2.721712538226299E-01
9.600000000000000E+02 1.710000000000000E+03 -2.579001019367991E-01
9.400000000000000E+02 1.720000000000000E+03 -2.436289500509683E-01
9.200000000000000E+02 1.730000000000000E+03 -2.293577981651375E-01
9.000000000000000E+02 1.740000000000000E+03 -2.150866462793067E-01
8.800000000000000E+02 1.750000000000000E+03 -2.008154943934759E-01
8.600000000000000E+02 1.760000000000000E+03 -1.865443425076452E-01
8.400000000000000E+02 1.770000000000000E+03 -1.722731906218143E-01
8.200000000000000E+02 1.780000000000000E+03 -1.580020387359836E-01
8.000000000000000E+02 1.790000000000000E+03 -1.437308868501528E-01
7.800000000000000E+02 1.800000000000000E+03 -1.294597349643219E-01
7.600000000000000E+02 1.810000000000000E+03 -1.151885830784912E-01
7.400000000000000E+02 1.820000000000000E+03 -1.009174311926604E-01
7.200000000000000E+02 1.830000000000000E+03 -8.664627930682967E-02
7.000000000000000E+02 1.840000000000000E+03 -7.237512742099883E-02
6.800000000000000E+02 1.850000000000000E+03 -5.810397553516811E-02
6.600000000000000E+02 1.860000000000000E+03 -4.383282364933727E-02
6.400000000000000E+02 1.870000000000000E+03 -2.956167176350644E-02
6.200000000000000E+02 1.880000000000000E+03 -1.529051987767571E-02
6.000000000000000E+02 1.890000000000000E+03 -1.019367991844877E-03
5.800000000000000E+02 1.900000000000000E+03 1.325178389398585E-02
5.600000000000000E+02 1.910000000000000E+03 2.752293577981657E-02
5.400000000000000E+02 1.920000000000000E+03 4.179408766564752E-02
5.200000000000000E+02 1.930000000000000E+03 5.606523955147824E-02
5.000000000000000E+02 1.940000000000000E+03 7.033639143730896E-02
4.800000000000000E+02 1.950000000000000E+03 8.460754332313991E-02
4.600000000000000E+02 1.960000000000000E+03 9.887869520897064E-02
4.400000000000000E+02 1.970000000000000E+03 1.131498470948014E-01
4.200000000000000E+02 1.980000000000000E+03 1.274209989806321E-01
4.000000000000000E+02 1.990000000000000E+03 1.416921508664630E-01
3.800000000000000E+02 2.000000000000000E+03 1.559633027522938E-01
2.000000000000000E+03 1.200000000000000E+03 -1.000000000000000E+00
1.980000000000000E+03 1.210000000000000E+03 -9.857288481141692E-01
1.960000000000000E+03 1.220000000000000E+03 -9.714576962283384E-01
1.940000000000000E+03 1.230000000000000E+03 -9.571865443425076E-01
1.920000000000000E+03 1.240000000000000E+03 -9.429153924566769E-01
1.900000000000000E+03 1.250000000000000E+03 -9.286442405708460E-01
1.880000000000000E+03 1.260000000000000E+03 -9.143730886850153E-01
1.860000000000000E+03 1.270000000000000E+03 -9.001019367991845E-01
1.840000000000000E+03 1.280000000000000E+03 -8.858307849133538E-01
1.820000000000000E+03 1.290000000000000E+03 -8.715596330275229E-01
1.800000000000000E+03 1.300000000000000E+03 -8.572884811416921E-01
1.780000000000000E+03 1.310000000000000E+03 -8.430173292558614E-01
1.760000000000000E+03 1.320000000000000E+03 -8.287461773700305E-01
1.740000000000000E+03 1.330000000000000E+03 -8.144750254841998E-01
1.720000000000000E+03 1.340000000000000E+03 -8.002038735983690E-01
1.700000000000000E+03 1.350000000000000E+03 -7.859327217125383E-01
1.680000000000000E+03 1.360000000000000E+03 -7.716615698267074E-01
1.660000000000000E+03 1.370000000000000E+03 -7.573904179408766E-01
1.640000000000000E+03 1.380000000000000E+03 -7.431192660550459E-01
1.620000000000000E+03 1.390000000000000E+03 -7.288481141692150E-01
1.600000000000000E+03 1.400000000000000E+03 -7.145769622833842E-01
1.580000000000000E+03 1.410000000000000E+03 -7.003058103975535E-01
1.560000000000000E+03 1.420000000000000E+03 -6.860346585117227E-01
1.540000000000000E+03 1.430000000000000E+03 -6.717635066258919E-01
1.520000000000000E+03 1.440000000000000E+03 -6.574923547400611E-01
1.500000000000000E+03 1.450000000000000E+03 -6.432212028542303E-01
1.480000000000000E+03 1.460000000000000E+03 -6.289500509683996E-01
1.460000000000000E+03 1.470000000000000E+03 -6.146788990825687E-01
1.440000000000000E+03 1.480000000000000E+03 -6.004077471967380E-01
1.420000000000000E+03 1.490000000000000E+03 -5.861365953109072E-01
1.400000000000000E+03 1.500000000000000E+03 -5.718654434250764E-01
1.380000000000000E+03 1.510000000000000E+03 -5.575942915392456E-01
1.360000000000000E+03 1.520000000000000E+03 -5.433231396534148E-01
1.340000000000000E+03 1.530000000000000E+03 -5.290519877675841E-01
1.320000000000000E+03 1.540000000000000E+03 -5.147808358817532E-01
1.300000000000000E+03 1.550000000000000E+03 -5.005096839959224E-01
1.280000000000000E+03 1.560000000000000E+03 -4.862385321100917E-01
1.260000000000000E+03 1.570000000000000E+03 -4.719673802242609E-01
1.240000000000000E+03 1.580000000000000E+03 -4.576962283384300E-01
1.220000000000000E+03 1.590000000000000E+03 -4.434250764525993E-01
1.200000000000000E+03 1.600000000000000E+03 -4.291539245667685E-01
1.180000000000000E+03 1.610000000000000E+03 -4.148827726809378E-01
1.160000000000000E+03 1.620000000000000E+03 -4.006116207951069E-01
1.140000000000000E+03 1.630000000000000E+03 -3.863404689092762E-01
1.120000000000000E+03 1.640000000000000E+03 -3.720693170234454E-01
1.100000000000000E+03 1.650000000000000E+03 -3.577981651376146E-01
1.080000000000000E+03 1.660000000000000E+03 -3.435270132517838E-01
1.060000000000000E+03 1.670000000000000E+03 -3.292558613659530E-01
1.040000000000000E+03 1.680000000000000E+03 -3.149847094801222E-01
1.020000000000000E+03 1.690000000000000E+03 -3.007135575942914E-01
1.000000000000000E+03 1.700000000000000E+03 -2.864424057084607E-01
9.800000000000000E+02 1.710000000000000E+03 -2.721712538226299E-01
9.600000000000000E+02 1.720000000000000E+03 -2.579001019367991E-01
9.400000000000000E+02 1.730000000000000E+03 -2.436289500509683E-01
9.200000000000000E+02 1.740000000000000E+03 -2.293577981651375E-01
9.000000000000000E+02 1.750000000000000E+03 -2.150866462793067E-01
8.800000000000000E+02 1.760000000000000E+03 -2.008154943934759E-01
8.600000000000000E+02 1.770000000000000E+03 -1.865443425076452E-01
8.400000000000000E+02 1.780000000000000E+03 -1.722731906218143E-01
8.200000000000000E+02 1.790000000000000E+03 -1.580020387359836E-01
8.000000000000000E+02 1.800000000000000E+03 -1.437308868501528E-01
7.800000000000000E+02 1.810000000000000E+03 -1.294597349643219E-01
7.600000000000000E+02 1.820000000000000E+03 -1.151885830784912E-01
7.400000000000000E+02 1.830000000000000E+03 -1.009174311926604E-01
7.200000000000000E+02 1.840000000000000E+03 -8.664627930682967E-02
7.000000000000000E+02 1.850000000000000E+03 -7.237512742099883E-02
6.800000000000000E+02 1.860000000000000E+03 -5.810397553516811E-02
6.600000000000000E+02 1.870000000000000E+03 -4.383282364933727E-02
6.400000000000000E+02 1.880000000000000E+03 -2.956167176350644E-02
6.200000000000000E+02 1.890000000000000E+03 -1.529051987767571E-02
6.000000000000000E+02 1.900000000000000E+03 -1.019367991844877E-03
5.800000000000000E+02 1.910000000000000E+03 1.325178389398585E-02
5.600000000000000E+02 1.920000000000000E+03 2.752293577981657E-02
5.400000000000000E+02 1.930000000000000E+03 4.179408766564752E-02
5.200000000000000E+02 1.940000000000000E+03 5.606523955147824E-02
5.000000000000000E+02 1.950000000000000E+03 7.033639143730896E-02
4.800000000000000E+02 1.960000000000000E+03 8.460754332313991E-02
4.600000000000000E+02 1.970000000000000E+03 9.887869520897064E-02
4.400000000000000E+02 1.980000000000000E+03 1.131498470948014E-01
4.200000000000000E+02 1.990000000000000E+03 1.274209989806321E-01
