5.700000000000000E+02 1.725000000000000E+03 1.020387359836901E+00
5.500000000000000E+02 1.735000000000000E+03 1.034658511722732E+00
5.300000000000000E+02 1.745000000000000E+03 1.048929663608563E+00
5.100000000000000E+02 1.755000000000000E+03 1.063200815494394E+00
4.900000000000000E+02 1.765000000000000E+03 1.077471967380224E+00
4.700000000000000E+02 1.775000000000000E+03 1.091743119266055E+00
4.500000000000000E+02 1.785000000000000E+03 1.106014271151886E+00
4.300000000000000E+02 1.795000000000000E+03 1.120285423037717E+00
4.100000000000000E+02 1.805000000000000E+03 1.134556574923548E+00
3.900000000000000E+02 1.815000000000000E+03 1.148827726809378E+00
3.700000000000000E+02 1.825000000000000E+03 1.163098878695209E+00
3.500000000000000E+02 1.835000000000000E+03 1.177370030581040E+00
3.300000000000000E+02 1.845000000000000E+03 1.191641182466871E+00
3.100000000000000E+02 1.855000000000000E+03 1.205912334352701E+00
2.900000000000000E+02 1.865000000000000E+03 1.220183486238532E+00
2.700000000000000E+02 1.875000000000000E+03 1.234454638124363E+00
2.500000000000000E+02 1.885000000000000E+03 1.248725790010194E+00
2.300000000000000E+02 1.895000000000000E+03 1.262996941896025E+00
2.100000000000000E+02 1.905000000000000E+03 1.277268093781855E+00
1.900000000000000E+02 1.915000000000000E+03 1.291539245667686E+00
1.700000000000000E+02 1.925000000000000E+03 1.305810397553517E+00
1.500000000000000E+02 1.935000000000000E+03 1.320081549439348E+00
1.300000000000000E+02 1.945000000000000E+03 1.334352701325179E+00
1.100000000000000E+02 1.955000000000000E+03 1.348623853211009E+00
9.000000000000000E+01 1.965000000000000E+03 1.362895005096840E+00
7.000000000000000E+01 1.975000000000000E+03 1.377166156982671E+00
5.000000000000000E+01 1.985000000000000E+03 1.391437308868502E+00
3.000000000000000E+01 1.995000000000000E+03 1.405708460754332E+00
1.990000000000000E+03 1.025000000000000E+03 7.135575942915393E-03
1.970000000000000E+03 1.035000000000000E+03 2.140672782874618E-02
1.950000000000000E+03 1.045000000000000E+03 3.567787971457697E-02
1.930000000000000E+03 1.055000000000000E+03 4.994903160040776E-02
1.910000000000000E+03 1.065000000000000E+03 6.422018348623854E-02
1.890000000000000E+03 1.075000000000000E+03 7.849133537206933E-02
1.870000000000000E+03 1.085000000000000E+03 9.276248725790011E-02
1.850000000000000E+03 1.095000000000000E+03 1.070336391437309E-01
1.830000000000000E+03 1.105000000000000E+03 1.213047910295617E-01
1.810000000000000E+03 1.115000000000000E+03 1.355759429153925E-01
1.790000000000000E+03 1.125000000000000E+03 1.498470948012233E-01
1.770000000000000E+03 1.135000000000000E+03 1.641182466870540E-01
1.750000000000000E+03 1.145000000000000E+03 1.783893985728848E-01
1.730000000000000E+03 1.155000000000000E+03 1.926605504587156E-01
1.710000000000000E+03 1.165000000000000E+03 2.069317023445464E-01
1.690000000000000E+03 1.175000000000000E+03 2.212028542303772E-01
1.670000000000000E+03 1.185000000000000E+03 2.354740061162080E-01
1.650000000000000E+03 1.195000000000000E+03 2.497451580020388E-01
1.630000000000000E+03 1.205000000000000E+03 2.640163098878696E-01
1.610000000000000E+03 1.215000000000000E+03 2.782874617737003E-01
1.590000000000000E+03 1.225000000000000E+03 2.925586136595311E-01
1.570000000000000E+03 1.235000000000000E+03 3.068297655453619E-01
1.550000000000000E+03 1.245000000000000E+03 3.211009174311927E-01
1.530000000000000E+03 1.255000000000000E+03 3.353720693170235E-01
1.510000000000000E+03 1.265000000000000E+03 3.496432212028543E-01
1.490000000000000E+03 1.275000000000000E+03 3.639143730886851E-01
1.470000000000000E+03 1.285000000000000E+03 3.781855249745159E-01
1.450000000000000E+03 1.295000000000000E+03 3.924566768603466E-01
1.430000000000000E+03 1.305000000000000E+03 4.067278287461774E-01
1.410000000000000E+03 1.315000000000000E+03 4.209989806320082E-01
1.390000000000000E+03 1.325000000000000E+03 4.352701325178390E-01
1.370000000000000E+03 1.335000000000000E+03 4.495412844036698E-01
1.350000000000000E+03 1.345000000000000E+03 4.638124362895006E-01
1.330000000000000E+03 1.355000000000000E+03 4.780835881753314E-01
1.310000000000000E+03 1.365000000000000E+03 4.923547400611621E-01
1.290000000000000E+03 1.375000000000000E+03 5.066258919469929E-01
1.270000000000000E+03 1.385000000000000E+03 5.208970438328238E-01
1.250000000000000E+03 1.395000000000000E+03 5.351681957186545E-01
1.230000000000000E+03 1.405000000000000E+03 5.494393476044853E-01
1.210000000000000E+03 1.415000000000000E+03 5.637104994903160E-01
1.190000000000000E+03 1.425000000000000E+03 5.779816513761469E-01
1.170000000000000E+03 1.435000000000000E+03 5.922528032619777E-01
1.150000000000000E+03 1.445000000000000E+03 6.065239551478084E-01
1.130000000000000E+03 1.455000000000000E+03 6.207951070336393E-01
1.110000000000000E+03 1.465000000000000E+03 6.350662589194700E-01
1.090000000000000E+03 1.475000000000000E+03 6.493374108053008E-01
1.070000000000000E+03 1.485000000000000E+03 6.636085626911316E-01
1.050000000000000E+03 1.495000000000000E+03 6.778797145769624E-01
1.030000000000000E+03 1.505000000000000E+03 6.921508664627931E-01
1.010000000000000E+03 1.515000000000000E+03 7.064220183486239E-01
9.900000000000000E+02 1.525000000000000E+03 7.206931702344548E-01
9.700000000000000E+02 1.535000000000000E+03 7.349643221202855E-01
9.500000000000000E+02 1.545000000000000E+03 7.492354740061163E-01
9.300000000000000E+02 1.555000000000000E+03 7.635066258919471E-01
9.100000000000000E+02 1.565000000000000E+03 7.777777777777779E-01
8.900000000000000E+02 1.575000000000000E+03 7.920489296636086E-01
8.700000000000000E+02 1.585000000000000E+03 8.063200815494395E-01
8.500000000000000E+02 1.595000000000000E+03 8.205912334352703E-01
8.300000000000000E+02 1.605000000000000E+03 8.348623853211010E-01
8.100000000000000E+02 1.615000000000000E+03 8.491335372069319E-01
7.900000000000000E+02 1.625000000000000E+03 8.634046890927626E-01
7.700000000000000E+02 1.635000000000000E+03 8.776758409785934E-01
7.500000000000000E+02 1.645000000000000E+03 8.919469928644241E-01
7.300000000000000E+02 1.655000000000000E+03 9.062181447502550E-01
7.100000000000000E+02 1.665000000000000E+03 9.204892966360858E-01
6.900000000000000E+02 1.675000000000000E+03 9.347604485219165E-01
6.700000000000000E+02 1.685000000000000E+03 9.490316004077474E-01
6.500000000000000E+02 1.695000000000000E+03 9.633027522935781E-01
6.300000000000000E+02 1.705000000000000E+03 9.775739041794089E-01
6.100000000000000E+02 1.715000000000000E+03 9.918450560652396E-01
5.900000000000000E+02 1.725000000000000E+03 1.006116207951070E+00
5.700000000000000E+02 1.735000000000000E+03 1.020387359836901E+00
5.500000000000000E+02 1.745000000000000E+03 1.034658511722732E+00
5.300000000000000E+02 1.755000000000000E+03 1.048929663608563E+00
5.100000000000000E+02 1.765000000000000E+03 1.063200815494394E+00
4.900000000000000E+02 1.775000000000000E+03 1.077471967380224E+00
4.700000000000000E+02 1.785000000000000E+03 1.091743119266055E+00
4.500000000000000E+02 1.795000000000000E+03 1.106014271151886E+00
4.300000000000000E+02 1.805000000000000E+03 1.120285423037717E+00
4.100000000000000E+02 1.815000000000000E+03 1.134556574923548E+00
3.900000000000000E+02 1.825000000000000E+03 1.148827726809378E+00
3.700000000000000E+02 1.835000000000000E+03 1.163098878695209E+00
3.500000000000000E+02 1.845000000000000E+03 1.177370030581040E+00
3.300000000000000E+02 1.855000000000000E+03 1.191641182466871E+00
3.100000000000000E+02 1.865000000000000E+03 1.205912334352701E+00
2.900000000000000E+02 1.875000000000000E+03 1.220183486238532E+00
2.700000000000000E+02 1.885000000000000E+03 1.234454638124363E+00
2.500000000000000E+02 1.895000000000000E+03 1.248725790010194E+00
2.300000000000000E+02 1.905000000000000E+03 1.262996941896025E+00
2.100000000000000E+02 1.915000000000000E+03 1.277268093781855E+00
1.900000000000000E+02 1.925000000000000E+03 1.291539245667686E+00
1.700000000000000E+02 1.935000000000000E+03 1.305810397553517E+00
1.500000000000000E+02 1.945000000000000E+03 1.320081549439348E+00
1.300000000000000E+02 1.955000000000000E+03 1.334352701325179E+00
1.100000000000000E+02 1.965000000000000E+03 1.348623853211009E+00
9.000000000000000E+01 1.975000000000000E+03 1.362895005096840E+00
7.000000000000000E+01 1.985000000000000E+03 1.377166156982671E+00
5.000000000000000E+01 1.995000000000000E+03 1.391437308868502E+00
1.990000000000000E+03 1.035000000000000E+03 7.135575942915393E-03
1.970000000000000E+03 1.045000000000000E+03 2.140672782874618E-02
1.950000000000000E+03 1.055000000000000E+03 3.567787971457697E-02
1.930000000000000E+03 1.065000000000000E+03 4.994903160040776E-02
1.910000000000000E+03 1.075000000000000E+03 6.422018348623854E-02
1.890000000000000E+03 1.085000000000000E+03 7.849133537206933E-02
1.870000000000000E+03 1.095000000000000E+03 9.276248725790011E-02
1.850000000000000E+03 1.105000000000000E+03 1.070336391437309E-01
1.830000000000000E+03 1.115000000000000E+03 1.213047910295617E-01
1.810000000000000E+03 1.125000000000000E+03 1.355759429153925E-01
1.790000000000000E+03 1.135000000000000E+03 1.498470948012233E-01
1.770000000000000E+03 1.145000000000000E+03 1.641182466870540E-01
1.750000000000000E+03 1.155000000000000E+03 1.783893985728848E-01
1.730000000000000E+03 1.165000000000000E+03 1.926605504587156E-01
1.710000000000000E+03 1.175000000000000E+03 2.069317023445464E-01
1.690000000000000E+03 1.185000000000000E+03 2.212028542303772E-01
1.670000000000000E+03 1.195000000000000E+03 2.354740061162080E-01
1.650000000000000E+03 1.205000000000000E+03 2.497451580020388E-01
1.630000000000000E+03 1.215000000000000E+03 2.640163098878696E-01
1.610000000000000E+03 1.225000000000000E+03 2.782874617737003E-01
1.590000000000000E+03 1.235000000000000E+03 2.925586136595311E-01
1.570000000000000E+03 1.245000000000000E+03 3.068297655453619E-01
1.550000000000000E+03 1.255000000000000E+03 3.211009174311927E-01
1.530000000000000E+03 1.265000000000000E+03 3.353720693170235E-01
1.510000000000000E+03 1.275000000000000E+03 3.496432212028543E-01
1.490000000000000E+03 1.285000000000000E+03 3.639143730886851E-01
1.470000000000000E+03 1.295000000000000E+03 3.781855249745159E-01
1.450000000000000E+03 1.305000000000000E+03 3.924566768603466E-01
1.430000000000000E+03 1.315000000000000E+03 4.067278287461774E-01
1.410000000000000E+03 1.325000000000000E+03 4.209989806320082E-01
1.390000000000000E+03 1.335000000000000E+03 4.352701325178390E-01
1.370000000000000E+03 1.345000000000000E+03 4.495412844036698E-01
1.350000000000000E+03 1.355000000000000E+03 4.638124362895006E-01
1.330000000000000E+03 1.365000000000000E+03 4.780835881753314E-01
1.310000000000000E+03 1.375000000000000E+03 4.923547400611621E-01
1.290000000000000E+03 1.385000000000000E+03 5.066258919469929E-01
1.270000000000000E+03 1.395000000000000E+03 5.208970438328238E-01
1.250000000000000E+03 1.405000000000000E+03 5.351681957186545E-01
1.230000000000000E+03 1.415000000000000E+03 5.494393476044853E-01
1.210000000000000E+03 1.425000000000000E+03 5.637104994903160E-01
1.190000000000000E+03 1.435000000000000E+03 5.779816513761469E-01
1.170000000000000E+03 1.445000000000000E+03 5.922528032619777E-01
1.150000000000000E+03 1.455000000000000E+03 6.065239551478084E-01
1.130000000000000E+03 1.465000000000000E+03 6.207951070336393E-01
1.110000000000000E+03 1.475000000000000E+03 6.350662589194700E-01
1.090000000000000E+03 1.485000000000000E+03 6.493374108053008E-01
1.070000000000000E+03 1.495000000000000E+03 6.636085626911316E-01
1.050000000000000E+03 1.505000000000000E+03 6.778797145769624E-01
1.030000000000000E+03 1.515000000000000E+03 6.921508664627931E-01
1.010000000000000E+03 1.525000000000000E+03 7.064220183486239E-01
9.900000000000000E+02 1.535000000000000E+03 7.206931702344548E-01
9.700000000000000E+02 1.545000000000000E+03 7.349643221202855E-01
9.500000000000000E+02 1.555000000000000E+03 7.492354740061163E-01
9.300000000000000E+02 1.565000000000000E+03 7.635066258919471E-01
9.100000000000000E+02 1.575000000000000E+03 7.777777777777779E-01
8.900000000000000E+02 1.585000000000000E+03 7.920489296636086E-01
8.700000000000000E+02 1.595000000000000E+03 8.063200815494395E-01
8.500000000000000E+02 1.605000000000000E+03 8.205912334352703E-01
8.300000000000000E+02 1.615000000000000E+03 8.348623853211010E-01
8.100000000000000E+02 1.625000000000000E+03 8.491335372069319E-01
7.900000000000000E+02 1.635000000000000E+03 8.634046890927626E-01
7.700000000000000E+02 1.645000000000000E+03 8.776758409785934E-01
7.500000000000000E+02 1.655000000000000E+03 8.919469928644241E-01
7.300000000000000E+02 1.665000000000000E+03 9.062181447502550E-01
7.100000000000000E+02 1.675000000000000E+03 9.204892966360858E-01
6.900000000000000E+02 1.685000000000000E+03 9.347604485219165E-01
6.700000000000000E+02 1.695000000000000E+03 9.490316004077474E-01
6.500000000000000E+02 1.705000000000000E+03 9.633027522935781E-01
6.300000000000000E+02 1.715000000000000E+03 9.775739041794089E-01
6.100000000000000E+02 1.725000000000000E+03 9.918450560652396E-01
5.900000000000000E+02 1.735000000000000E+03 1.006116207951070E+00
5.700000000000000E+02 1.745000000000000E+03 1.020387359836901E+00
5.500000000000000E+02 1.755000000000000E+03 1.034658511722732E+00
5.300000000000000E+02 1.765000000000000E+03 1.048929663608563E+00
5.100000000000000E+02 1.775000000000000E+03 1.063200815494394E+00
4.900000000000000E+02 1.785000000000000E+03 1.077471967380224E+00
4.700000000000000E+02 1.795000000000000E+03 1.091743119266055E+00
4.500000000000000E+02 1.805000000000000E+03 1.106014271151886E+00
4.300000000000000E+02 1.815000000000000E+03 1.120285423037717E+00
4.100000000000000E+02 1.825000000000000E+03 1.134556574923548E+00
3.900000000000000E+02 1.835000000000000E+03 1.148827726809378E+00
3.700000000000000E+02 1.845000000000000E+03 1.163098878695209E+00
3.500000000000000E+02 1.855000000000000E+03 1.177370030581040E+00
3.300000000000000E+02 1.865000000000000E+03 1.191641182466871E+00
3.100000000000000E+02 1.875000000000000E+03 1.205912334352701E+00
2.900000000000000E+02 1.885000000000000E+03 1.220183486238532E+00
2.700000000000000E+02 1.895000000000000E+03 1.234454638124363E+00
2.500000000000000E+02 1.905000000000000E+03 1.248725790010194E+00
2.300000000000000E+02 1.915000000000000E+03 1.262996941896025E+00
2.100000000000000E+02 1.925000000000000E+03 1.277268093781855E+00
1.900000000000000E+02 1.935000000000000E+03 1.291539245667686E+00
1.700000000000000E+02 1.945000000000000E+03 1.305810397553517E+00
1.500000000000000E+02 1.955000000000000E+03 1.320081549439348E+00
1.300000000000000E+02 1.965000000000000E+03 1.334352701325179E+00
1.100000000000000E+02 1.975000000000000E+03 1.348623853211009E+00
9.000000000000000E+01 1.985000000000000E+03 1.362895005096840E+00
7.000000000000000E+01 1.995000000000000E+03 1.377166156982671E+00
1.990000000000000E+03 1.045000000000000E+03 7.135575942915393E-03
1.970000000000000E+03 1.055000000000000E+03 2.140672782874618E-02
1.950000000000000E+03 1.065000000000000E+03 3.567787971457697E-02
1.930000000000000E+03 1.075000000000000E+03 4.994903160040776E-02
1.910000000000000E+03 1.085000000000000E+03 6.422018348623854E-02
1.890000000000000E+03 1.095000000000000E+03 7.849133537206933E-02
1.870000000000000E+03 1.105000000000000E+03 9.276248725790011E-02
1.850000000000000E+03 1.115000000000000E+03 1.070336391437309E-01
1.830000000000000E+03 1.125000000000000E+03 1.213047910295617E-01
1.810000000000000E+03 1.135000000000000E+03 1.355759429153925E-01
1.790000000000000E+03 1.145000000000000E+03 1.498470948012233E-01
1.770000000000000E+03 1.155000000000000E+03 1.641182466870540E-01
1.750000000000000E+03 1.165000000000000E+03 1.783893985728848E-01
1.730000000000000E+03 1.175000000000000E+03 1.926605504587156E-01
1.710000000000000E+03 1.185000000000000E+03 2.069317023445464E-01
1.690000000000000E+03 1.195000000000000E+03 2.212028542303772E-01
1.670000000000000E+03 1.205000000000000E+03 2.354740061162080E-01
1.650000000000000E+03 1.215000000000000E+03 2.497451580020388E-01
1.630000000000000E+03 1.225000000000000E+03 2.640163098878696E-01
1.610000000000000E+03 1.235000000000000E+03 2.782874617737003E-01
1.590000000000000E+03 1.245000000000000E+03 2.925586136595311E-01
1.570000000000000E+03 1.255000000000000E+03 3.068297655453619E-01
1.550000000000000E+03 1.265000000000000E+03 3.211009174311927E-01
1.530000000000000E+03 1.275000000000000E+03 3.353720693170235E-01
1.510000000000000E+03 1.285000000000000E+03 3.496432212028543E-01
1.490000000000000E+03 1.295000000000000E+03 3.639143730886851E-01
1.470000000000000E+03 1.305000000000000E+03 3.781855249745159E-01
1.450000000000000E+03 1.315000000000000E+03 3.924566768603466E-01
1.430000000000000E+03 1.325000000000000E+03 4.067278287461774E-01
1.410000000000000E+03 1.335000000000000E+03 4.209989806320082E-01
1.390000000000000E+03 1.345000000000000E+03 4.352701325178390E-01
1.370000000000000E+03 1.355000000000000E+03 4.495412844036698E-01
1.350000000000000E+03 1.365000000000000E+03 4.638124362895006E-01
1.330000000000000E+03 1.375000000000000E+03 4.780835881753314E-01
1.310000000000000E+03 1.385000000000000E+03 4.923547400611621E-01
1.290000000000000E+03 1.395000000000000E+03 5.066258919469929E-01
1.270000000000000E+03 1.405000000000000E+03 5.208970438328238E-01
1.250000000000000E+03 1.415000000000000E+03 5.351681957186545E-01
1.230000000000000E+03 1.425000000000000E+03 5.494393476044853E-01
1.210000000000000E+03 1.435000000000000E+03 5.637104994903160E-01
1.190000000000000E+03 1.445000000000000E+03 5.779816513761469E-01
1.170000000000000E+03 1.455000000000000E+03 5.922528032619777E-01
1.150000000000000E+03 1.465000000000000E+03 6.065239551478084E-01
1.130000000000000E+03 1.475000000000000E+03 6.207951070336393E-01
1.110000000000000E+03 1.485000000000000E+03 6.350662589194700E-01
1.090000000000000E+03 1.495000000000000E+03 6.493374108053008E-01
1.070000000000000E+03 1.505000000000000E+03 6.636085626911316E-01
1.050000000000000E+03 1.515000000000000E+03 6.778797145769624E-01
1.030000000000000E+03 1.525000000000000E+03 6.921508664627931E-01
1.010000000000000E+03 1.535000000000000E+03 7.064220183486239E-01
9.900000000000000E+02 1.545000000000000E+03 7.206931702344548E-01
9.700000000000000E+02 1.555000000000000E+03 7.349643221202855E-01
9.500000000000000E+02 1.565000000000000E+03 7.492354740061163E-01
9.300000000000000E+02 1.575000000000000E+03 7.635066258919471E-01
9.100000000000000E+02 1.585000000000000E+03 7.777777777777779E-01
8.900000000000000E+02 1.595000000000000E+03 7.920489296636086E-01
8.700000000000000E+02 1.605000000000000E+03 8.063200815494395E-01
8.500000000000000E+02 1.615000000000000E+03 8.205912334352703E-01
8.300000000000000E+02 1.625000000000000E+03 8.348623853211010E-01
8.100000000000000E+02 1.635000000000000E+03 8.491335372069319E-01
7.900000000000000E+02 1.645000000000000E+03 8.634046890927626E-01
7.700000000000000E+02 1.655000000000000E+03 8.776758409785934E-01
7.500000000000000E+02 1.665000000000000E+03 8.919469928644241E-01
7.300000000000000E+02 1.675000000000000E+03 9.062181447502550E-01
7.100000000000000E+02 1.685000000000000E+03 9.204892966360858E-01
6.900000000000000E+02 1.695000000000000E+03 9.347604485219165E-01
6.700000000000000E+02 1.705000000000000E+03 9.490316004077474E-01
6.500000000000000E+02 1.715000000000000E+03 9.633027522935781E-01
6.300000000000000E+02 1.725000000000000E+03 9.775739041794089E-01
6.100000000000000E+02 1.735000000000000E+03 9.918450560652396E-01
5.900000000000000E+02 1.745000000000000E+03 1.006116207951070E+00
5.700000000000000E+02 1.755000000000000E+03 1.020387359836901E+00
5.500000000000000E+02 1.765000000000000E+03 1.034658511722732E+00
5.300000000000000E+02 1.775000000000000E+03 1.048929663608563E+00
5.100000000000000E+02 1.785000000000000E+03 1.063200815494394E+00
4.900000000000000E+02 1.795000000000000E+03 1.077471967380224E+00
4.700000000000000E+02 1.805000000000000E+03 1.091743119266055E+00
4.500000000000000E+02 1.815000000000000E+03 1.106014271151886E+00
4.300000000000000E+02 1.825000000000000E+03 1.120285423037717E+00
4.100000000000000E+02 1.835000000000000E+03 1.134556574923548E+00
3.900000000000000E+02 1.845000000000000E+03 1.148827726809378E+00
3.700000000000000E+02 1.855000000000000E+03 1.163098878695209E+00
3.500000000000000E+02 1.865000000000000E+03 1.177370030581040E+00
3.300000000000000E+02 1.875000000000000E+03 1.191641182466871E+00
3.100000000000000E+02 1.885000000000000E+03 1.205912334352701E+00
2.900000000000000E+02 1.895000000000000E+03 1.220183486238532E+00
2.700000000000000E+02 1.905000000000000E+03 1.234454638124363E+00
2.500000000000000E+02 1.915000000000000E+03 1.248725790010194E+00
2.300000000000000E+02 1.925000000000000E+03 1.262996941896025E+00
2.100000000000000E+02 1.935000000000000E+03 1.277268093781855E+00
1.900000000000000E+02 1.945000000000000E+03 1.291539245667686E+00
1.700000000000000E+02 1.955000000000000E+03 1.305810397553517E+00
1.500000000000000E+02 1.965000000000000E+03 1.320081549439348E+00
1.300000000000000E+02 1.975000000000000E+03 1.334352701325179E+00
1.100000000000000E+02 1.985000000000000E+03 1.348623853211009E+00
9.000000000000000E+01 1.995000000000000E+03 1.362895005096840E+00
1.990000000000000E+03 1.055000000000000E+03 7.135575942915393E-03
1.970000000000000E+03 1.065000000000000E+03 2.140672782874618E-02
1.950000000000000E+03 1.075000000000000E+03 3.567787971457697E-02
1.930000000000000E+03 1.085000000000000E+03 4.994903160040776E-02
1.910000000000000E+03 1.095000000000000E+03 6.422018348623854E-02
1.890000000000000E+03 1.105000000000000E+03 7.849133537206933E-02
1.870000000000000E+03 1.115000000000000E+03 9.276248725790011E-02
1.850000000000000E+03 1.125000000000000E+03 1.070336391437309E-01
1.830000000000000E+03 1.135000000000000E+03 1.213047910295617E-01
1.810000000000000E+03 1.145000000000000E+03 1.355759429153925E-01
1.790000000000000E+03 1.155000000000000E+03 1.498470948012233E-01
1.770000000000000E+03 1.165000000000000E+03 1.641182466870540E-01
1.750000000000000E+03 1.175000000000000E+03 1.783893985728848E-01
1.730000000000000E+03 1.185000000000000E+03 1.926605504587156E-01
1.710000000000000E+03 1.195000000000000E+03 2.069317023445464E-01
1.690000000000000E+03 1.205000000000000E+03 2.212028542303772E-01
1.670000000000000E+03 1.215000000000000E+03 2.354740061162080E-01
1.650000000000000E+03 1.225000000000000E+03 2.497451580020388E-01
1.630000000000000E+03 1.235000000000000E+03 2.640163098878696E-01
1.610000000000000E+03 1.245000000000000E+03 2.782874617737003E-01
1.590000000000000E+03 1.255000000000000E+03 2.925586136595311E-01
1.570000000000000E+03 1.265000000000000E+03 3.068297655453619E-01
1.550000000000000E+03 1.275000000000000E+03 3.211009174311927E-01
1.530000000000000E+03 1.285000000000000E+03 3.353720693170235E-01
1.510000000000000E+03 1.295000000000000E+03 3.496432212028543E-01
1.490000000000000E+03 1.305000000000000E+03 3.639143730886851E-01
1.470000000000000E+03 1.315000000000000E+03 3.781855249745159E-01
1.450000000000000E+03 1.325000000000000E+03 3.924566768603466E-01
1.430000000000000E+03 1.335000000000000E+03 4.067278287461774E-01
1.410000000000000E+03 1.345000000000000E+03 4.209989806320082E-01
1.390000000000000E+03 1.355000000000000E+03 4.352701325178390E-01
1.370000000000000E+03 1.365000000000000E+03 4.495412844036698E-01
1.350000000000000E+03 1.375000000000000E+03 4.638124362895006E-01
1.330000000000000E+03 1.385000000000000E+03 4.780835881753314E-01
1.310000000000000E+03 1.395000000000000E+03 4.923547400611621E-01
1.290000000000000E+03 1.405000000000000E+03 5.066258919469929E-01
1.270000000000000E+03 1.415000000000000E+03 5.208970438328238E-01
1.250000000000000E+03 1.425000000000000E+03 5.351681957186545E-01
1.230000000000000E+03 1.435000000000000E+03 5.494393476044853E-01
1.210000000000000E+03 1.445000000000000E+03 5.637104994903160E-01
1.190000000000000E+03 1.455000000000000E+03 5.779816513761469E-01
1.170000000000000E+03 1.465000000000000E+03 5.922528032619777E-01
1.150000000000000E+03 1.475000000000000E+03 6.065239551478084E-01
1.130000000000000E+03 1.485000000000000E+03 6.207951070336393E-01
1.110000000000000E+03 1.495000000000000E+03 6.350662589194700E-01
1.090000000000000E+03 1.505000000000000E+03 6.493374108053008E-01
1.070000000000000E+03 1.515000000000000E+03 6.636085626911316E-01
1.050000000000000E+03 1.525000000000000E+03 6.778797145769624E-01
1.030000000000000E+03 1.535000000000000E+03 6.921508664627931E-01
1.010000000000000E+03 1.545000000000000E+03 7.064220183486239E-01
9.900000000000000E+02 1.555000000000000E+03 7.206931702344548E-01
9.700000000000000E+02 1.565000000000000E+03 7.349643221202855E-01
9.500000000000000E+02 1.575000000000000E+03 7.492354740061163E-01
9.300000000000000E+02 1.585000000000000E+03 7.635066258919471E-01
9.100000000000000E+02 1.595000000000000E+03 7.777777777777779E-01
8.900000000000000E+02 1.605000000000000E+03 7.920489296636086E-01
8.700000000000000E+02 1.615000000000000E+03 8.063200815494395E-01
8.500000000000000E+02 1.625000000000000E+03 8.205912334352703E-01
8.300000000000000E+02 1.635000000000000E+03 8.348623853211010E-01
8.100000000000000E+02 1.645000000000000E+03 8.491335372069319E-01
7.900000000000000E+02 1.655000000000000E+03 8.634046890927626E-01
7.700000000000000E+02 1.665000000000000E+03 8.776758409785934E-01
7.500000000000000E+02 1.675000000000000E+03 8.919469928644241E-01
7.300000000000000E+02 1.685000000000000E+03 9.062181447502550E-01
7.100000000000000E+02 1.695000000000000E+03 9.204892966360858E-01
6.900000000000000E+02 1.705000000000000E+03 9.347604485219165E-01
6.700000000000000E+02 1.715000000000000E+03 9.490316004077474E-01
6.500000000000000E+02 1.725000000000000E+03 9.633027522935781E-01
6.300000000000000E+02 1.735000000000000E+03 9.775739041794089E-01
6.100000000000000E+02 1.745000000000000E+03 9.918450560652396E-01
5.900000000000000E+02 1.755000000000000E+03 1.006116207951070E+00
5.700000000000000E+02 1.765000000000000E+03 1.020387359836901E+00
5.500000000000000E+02 1.775000000000000E+03 1.034658511722732E+00
5.300000000000000E+02 1.785000000000000E+03 1.048929663608563E+00
5.100000000000000E+02 1.795000000000000E+03 1.063200815494394E+00
4.900000000000000E+02 1.805000000000000E+03 1.077471967380224E+00
4.700000000000000E+02 1.815000000000000E+03 1.091743119266055E+00
4.500000000000000E+02 1.825000000000000E+03 1.106014271151886E+00
4.300000000000000E+02 1.835000000000000E+03 1.120285423037717E+00
4.100000000000000E+02 1.845000000000000E+03 1.134556574923548E+00
3.900000000000000E+02 1.855000000000000E+03 1.148827726809378E+00
3.700000000000000E+02 1.865000000000000E+03 1.163098878695209E+00
3.500000000000000E+02 1.875000000000000E+03 1.177370030581040E+00
3.300000000000000E+02 1.885000000000000E+03 1.191641182466871E+00
3.100000000000000E+02 1.895000000000000E+03 1.205912334352701E+00
2.900000000000000E+02 1.905000000000000E+03 1.220183486238532E+00
2.700000000000000E+02 1.915000000000000E+03 1.234454638124363E+00
2.500000000000000E+02 1.925000000000000E+03 1.248725790010194E+00
2.300000000000000E+02 1.935000000000000E+03 1.262996941896025E+00
2.100000000000000E+02 1.945000000000000E+03 1.277268093781855E+00
1.900000000000000E+02 1.955000000000000E+03 1.291539245667686E+00
1.700000000000000E+02 1.965000000000000E+03 1.305810397553517E+00
1.500000000000000E+02 1.975000000000000E+03 1.320081549439348E+00
1.300000000000000E+02 1.985000000000000E+03 1.334352701325179E+00
1.100000000000000E+02 1.995000000000000E+03 1.348623853211009E+00
1.990000000000000E+03 1.065000000000000E+03 7.135575942915393E-03
1.970000000000000E+03 1.075000000000000E+03 2.140672782874618E-02
1.950000000000000E+03 1.085000000000000E+03 3.567787971457697E-02
1.930000000000000E+03 1.095000000000000E+03 4.994903160040776E-02
1.910000000000000E+03 1.105000000000000E+03 6.422018348623854E-02
1.890000000000000E+03 1.115000000000000E+03 7.849133537206933E-02
1.870000000000000E+03 1.125000000000000E+03 9.276248725790011E-02
1.850000000000000E+03 1.135000000000000E+03 1.070336391437309E-01
1.830000000000000E+03 1.145000000000000E+03 1.213047910295617E-01
1.810000000000000E+03 1.155000000000000E+03 1.355759429153925E-01
1.790000000000000E+03 1.165000000000000E+03 1.498470948012233E-01
1.770000000000000E+03 1.175000000000000E+03 1.641182466870540E-01
1.750000000000000E+03 1.185000000000000E+03 1.783893985728848E-01
1.730000000000000E+03 1.195000000000000E+03 1.926605504587156E-01
1.710000000000000E+03 1.205000000000000E+03 2.069317023445464E-01
1.690000000000000E+03 1.215000000000000E+03 2.212028542303772E-01
1.670000000000000E+03 1.225000000000000E+03 2.354740061162080E-01
1.650000000000000E+03 1.235000000000000E+03 2.497451580020388E-01
1.630000000000000E+03 1.245000000000000E+03 2.640163098878696E-01
1.610000000000000E+03 1.255000000000000E+03 2.782874617737003E-01
1.590000000000000E+03 1.265000000000000E+03 2.925586136595311E-01
1.570000000000000E+03 1.275000000000000E+03 3.068297655453619E-01
1.550000000000000E+03 1.285000000000000E+03 3.211009174311927E-01
1.530000000000000E+03 1.295000000000000E+03 3.353720693170235E-01
1.510000000000000E+03 1.305000000000000E+03 3.496432212028543E-01
1.490000000000000E+03 1.315000000000000E+03 3.639143730886851E-01
1.470000000000000E+03 1.325000000000000E+03 3.781855249745159E-01
1.450000000000000E+03 1.335000000000000E+03 3.924566768603466E-01
1.430000000000000E+03 1.345000000000000E+03 4.067278287461774E-01
1.410000000000000E+03 1.355000000000000E+03 4.209989806320082E-01
1.390000000000000E+03 1.365000000000000E+03 4.352701325178390E-01
1.370000000000000E+03 1.375000000000000E+03 4.495412844036698E-01
1.350000000000000E+03 1.385000000000000E+03 4.638124362895006E-01
1.330000000000000E+03 1.395000000000000E+03 4.780835881753314E-01
1.310000000000000E+03 1.405000000000000E+03 4.923547400611621E-01
1.290000000000000E+03 1.415000000000000E+03 5.066258919469929E-01
1.270000000000000E+03 1.425000000000000E+03 5.208970438328238E-01
1.250000000000000E+03 1.435000000000000E+03 5.351681957186545E-01
1.230000000000000E+03 1.445000000000000E+03 5.494393476044853E-01
1.210000000000000E+03 1.455000000000000E+03 5.637104994903160E-01
1.190000000000000E+03 1.465000000000000E+03 5.779816513761469E-01
1.170000000000000E+03 1.475000000000000E+03 5.922528032619777E-01
1.150000000000000E+03 1.485000000000000E+03 6.065239551478084E-01
1.130000000000000E+03 1.495000000000000E+03 6.207951070336393E-01
1.110000000000000E+03 1.505000000000000E+03 6.350662589194700E-01
1.090000000000000E+03 1.515000000000000E+03 6.493374108053008E-01
1.070000000000000E+03 1.525000000000000E+03 6.636085626911316E-01
1.050000000000000E+03 1.535000000000000E+03 6.778797145769624E-01
1.030000000000000E+03 1.545000000000000E+03 6.921508664627931E-01
1.010000000000000E+03 1.555000000000000E+03 7.064220183486239E-01
9.900000000000000E+02 1.565000000000000E+03 7.206931702344548E-01
9.700000000000000E+02 1.575000000000000E+03 7.349643221202855E-01
9.500000000000000E+02 1.585000000000000E+03 7.492354740061163E-01
9.300000000000000E+02 1.595000000000000E+03 7.635066258919471E-01
9.100000000000000E+02 1.605000000000000E+03 7.777777777777779E-01
8.900000000000000E+02 1.615000000000000E+03 7.920489296636086E-01
8.700000000000000E+02 1.625000000000000E+03 8.063200815494395E-01
8.500000000000000E+02 1.635000000000000E+03 8.205912334352703E-01
8.300000000000000E+02 1.645000000000000E+03 8.348623853211010E-01
8.100000000000000E+02 1.655000000000000E+03 8.491335372069319E-01
7.900000000000000E+02 1.665000000000000E+03 8.634046890927626E-01
7.700000000000000E+02 1.675000000000000E+03 8.776758409785934E-01
7.500000000000000E+02 1.685000000000000E+03 8.919469928644241E-01
7.300000000000000E+02 1.695000000000000E+03 9.062181447502550E-01
7.100000000000000E+02 1.705000000000000E+03 9.204892966360858E-01
6.900000000000000E+02 1.715000000000000E+03 9.347604485219165E-01
6.700000000000000E+02 1.725000000000000E+03 9.490316004077474E-01
6.500000000000000E+02 1.735000000000000E+03 9.633027522935781E-01
6.300000000000000E+02 1.745000000000000E+03 9.775739041794089E-01
6.100000000000000E+02 1.755000000000000E+03 9.918450560652396E-01
5.900000000000000E+02 1.765000000000000E+03 1.006116207951070E+00
5.700000000000000E+02 1.775000000000000E+03 1.020387359836901E+00
5.500000000000000E+02 1.785000000000000E+03 1.034658511722732E+00
5.300000000000000E+02 1.795000000000000E+03 1.048929663608563E+00
5.100000000000000E+02 1.805000000000000E+03 1.063200815494394E+00
4.900000000000000E+02 1.815000000000000E+03 1.077471967380224E+00
4.700000000000000E+02 1.825000000000000E+03 1.091743119266055E+00
4.500000000000000E+02 1.835000000000000E+03 1.106014271151886E+00
4.300000000000000E+02 1.845000000000000E+03 1.120285423037717E+00
4.100000000000000E+02 1.855000000000000E+03 1.134556574923548E+00
3.900000000000000E+02 1.865000000000000E+03 1.148827726809378E+00
3.700000000000000E+02 1.875000000000000E+03 1.163098878695209E+00
3.500000000000000E+02 1.885000000000000E+03 1.177370030581040E+00
3.300000000000000E+02 1.895000000000000E+03 1.191641182466871E+00
3.100000000000000E+02 1.905000000000000E+03 1.205912334352701E+00
2.900000000000000E+02 1.915000000000000E+03 1.220183486238532E+00
2.700000000000000E+02 1.925000000000000E+03 1.234454638124363E+00
2.500000000000000E+02 1.935000000000000E+03 1.248725790010194E+00
2.300000000000000E+02 1.945000000000000E+03 1.262996941896025E+00
2.100000000000000E+02 1.955000000000000E+03 1.277268093781855E+00
1.900000000000000E+02 1.965000000000000E+03 1.291539245667686E+00
1.700000000000000E+02 1.975000000000000E+03 1.305810397553517E+00
1.500000000000000E+02 1.985000000000000E+03 1.320081549439348E+00
1.300000000000000E+02 1.995000000000000E+03 1.334352701325179E+00
1.990000000000000E+03 1.075000000000000E+03 7.135575942915393E-03
1.970000000000000E+03 1.085000000000000E+03 2.140672782874618E-02
1.950000000000000E+03 1.095000000000000E+03 3.567787971457697E-02
1.930000000000000E+03 1.105000000000000E+03 4.994903160040776E-02
1.910000000000000E+03 1.115000000000000E+03 6.422018348623854E-02
1.890000000000000E+03 1.125000000000000E+03 7.849133537206933E-02
1.870000000000000E+03 1.135000000000000E+03 9.276248725790011E-02
1.850000000000000E+03 1.145000000000000E+03 1.070336391437309E-01
1.830000000000000E+03 1.155000000000000E+03 1.213047910295617E-01
1.810000000000000E+03 1.165000000000000E+03 1.355759429153925E-01
1.790000000000000E+03 1.175000000000000E+03 1.498470948012233E-01
1.770000000000000E+03 1.185000000000000E+03 1.641182466870540E-01
1.750000000000000E+03 1.195000000000000E+03 1.783893985728848E-01
1.730000000000000E+03 1.205000000000000E+03 1.926605504587156E-01
1.710000000000000E+03 1.215000000000000E+03 2.069317023445464E-01
1.690000000000000E+03 1.225000000000000E+03 2.212028542303772E-01
1.670000000000000E+03 1.235000000000000E+03 2.354740061162080E-01
1.650000000000000E+03 1.245000000000000E+03 2.497451580020388E-01
1.630000000000000E+03 1.255000000000000E+03 2.640163098878696E-01
1.610000000000000E+03 1.265000000000000E+03 2.782874617737003E-01
1.590000000000000E+03 1.275000000000000E+03 2.925586136595311E-01
1.570000000000000E+03 1.285000000000000E+03 3.068297655453619E-01
1.550000000000000E+03 1.295000000000000E+03 3.211009174311927E-01
1.530000000000000E+03 1.305000000000000E+03 3.353720693170235E-01
1.510000000000000E+03 1.315000000000000E+03 3.496432212028543E-01
1.490000000000000E+03 1.325000000000000E+03 3.639143730886851E-01
1.470000000000000E+03 1.335000000000000E+03 3.781855249745159E-01
1.450000000000000E+03 1.345000000000000E+03 3.924566768603466E-01
1.430000000000000E+03 1.355000000000000E+03 4.067278287461774E-01
1.410000000000000E+03 1.365000000000000E+03 4.209989806320082E-01
1.390000000000000E+03 1.375000000000000E+03 4.352701325178390E-01
1.370000000000000E+03 1.385000000000000E+03 4.495412844036698E-01
1.350000000000000E+03 1.395000000000000E+03 4.638124362895006E-01
1.330000000000000E+03 1.405000000000000E+03 4.780835881753314E-01
1.310000000000000E+03 1.415000000000000E+03 4.923547400611621E-01
1.290000000000000E+03 1.425000000000000E+03 5.066258919469929E-01
1.270000000000000E+03 1.435000000000000E+03 5.208970438328238E-01
1.250000000000000E+03 1.445000000000000E+03 5.351681957186545E-01
1.230000000000000E+03 1.455000000000000E+03 5.494393476044853E-01
1.210000000000000E+03 1.465000000000000E+03 5.637104994903160E-01
1.190000000000000E+03 1.475000000000000E+03 5.779816513761469E-01
1.170000000000000E+03 1.485000000000000E+03 5.922528032619777E-01
1.150000000000000E+03 1.495000000000000E+03 6.065239551478084E-01
1.130000000000000E+03 1.505000000000000E+03 6.207951070336393E-01
1.110000000000000E+03 1.515000000000000E+03 6.350662589194700E-01
1.090000000000000E+03 1.525000000000000E+03 6.493374108053008E-01
1.070000000000000E+03 1.535000000000000E+03 6.636085626911316E-01
1.050000000000000E+03 1.545000000000000E+03 6.778797145769624E-01
1.030000000000000E+03 1.555000000000000E+03 6.921508664627931E-01
1.010000000000000E+03 1.565000000000000E+03 7.064220183486239E-01
9.900000000000000E+02 1.575000000000000E+03 7.206931702344548E-01
9.700000000000000E+02 1.585000000000000E+03 7.349643221202855E-01
9.500000000000000E+02 1.595000000000000E+03 7.492354740061163E-01
9.300000000000000E+02 1.605000000000000E+03 7.635066258919471E-01
9.100000000000000E+02 1.615000000000000E+03 7.777777777777779E-01
8.900000000000000E+02 1.625000000000000E+03 7.920489296636086E-01
8.700000000000000E+02 1.635000000000000E+03 8.063200815494395E-01
8.500000000000000E+02 1.645000000000000E+03 8.205912334352703E-01
8.300000000000000E+02 1.655000000000000E+03 8.348623853211010E-01
8.100000000000000E+02 1.665000000000000E+03 8.491335372069319E-01
7.900000000000000E+02 1.675000000000000E+03 8.634046890927626E-01
7.700000000000000E+02 1.685000000000000E+03 8.776758409785934E-01
7.500000000000000E+02 1.695000000000000E+03 8.919469928644241E-01
7.300000000000000E+02 1.705000000000000E+03 9.062181447502550E-01
7.100000000000000E+02 1.715000000000000E+03 9.204892966360858E-01
6.900000000000000E+02 1.725000000000000E+03 9.347604485219165E-01
6.700000000000000E+02 1.735000000000000E+03 9.490316004077474E-01
6.500000000000000E+02 1.745000000000000E+03 9.633027522935781E-01
6.300000000000000E+02 1.755000000000000E+03 9.775739041794089E-01
6.100000000000000E+02 1.765000000000000E+03 9.918450560652396E-01
5.900000000000000E+02 1.775000000000000E+03 1.006116207951070E+00
5.700000000000000E+02 1.785000000000000E+03 1.020387359836901E+00
5.500000000000000E+02 1.795000000000000E+03 1.034658511722732E+00
5.300000000000000E+02 1.805000000000000E+03 1.048929663608563E+00
5.100000000000000E+02 1.815000000000000E+03 1.063200815494394E+00
4.900000000000000E+02 1.825000000000000E+03 1.077471967380224E+00
4.700000000000000E+02 1.835000000000000E+03 1.091743119266055E+00
4.500000000000000E+02 1.845000000000000E+03 1.106014271151886E+00
4.300000000000000E+02 1.855000000000000E+03 1.120285423037717E+00
4.100000000000000E+02 1.865000000000000E+03 1.134556574923548E+00
3.900000000000000E+02 1.875000000000000E+03 1.148827726809378E+00
3.700000000000000E+02 1.885000000000000E+03 1.163098878695209E+00
3.500000000000000E+02 1.895000000000000E+03 1.177370030581040E+00
3.300000000000000E+02 1.905000000000000E+03 1.191641182466871E+00
3.100000000000000E+02 1.915000000000000E+03 1.205912334352701E+00
2.900000000000000E+02 1.925000000000000E+03 1.220183486238532E+00
2.700000000000000E+02 1.935000000000000E+03 1.234454638124363E+00
2.500000000000000E+02 1.945000000000000E+03 1.248725790010194E+00
2.300000000000000E+02 1.955000000000000E+03 1.262996941896025E+00
2.100000000000000E+02 1.965000000000000E+03 1.277268093781855E+00
1.900000000000000E+02 1.975000000000000E+03 1.291539245667686E+00
1.700000000000000E+02 1.985000000000000E+03 1.305810397553517E+00
1.500000000000000E+02 1.995000000000000E+03 1.320081549439348E+00
1.990000000000000E+03 1.085000000000000E+03 7.135575942915393E-03
1.970000000000000E+03 1.095000000000000E+03 2.140672782874618E-02
1.950000000000000E+03 1.105000000000000E+03 3.567787971457697E-02
1.930000000000000E+03 1.115000000000000E+03 4.994903160040776E-02
1.910000000000000E+03 1.125000000000000E+03 6.422018348623854E-02
1.890000000000000E+03 1.135000000000000E+03 7.849133537206933E-02
1.870000000000000E+03 1.145000000000000E+03 9.276248725790011E-02
1.850000000000000E+03 1.155000000000000E+03 1.070336391437309E-01
1.830000000000000E+03 1.165000000000000E+03 1.213047910295617E-01
1.810000000000000E+03 1.175000000000000E+03 1.355759429153925E-01
1.790000000000000E+03 1.185000000000000E+03 1.498470948012233E-01
1.770000000000000E+03 1.195000000000000E+03 1.641182466870540E-01
1.750000000000000E+03 1.205000000000000E+03 1.783893985728848E-01
1.730000000000000E+03 1.215000000000000E+03 1.926605504587156E-01
1.710000000000000E+03 1.225000000000000E+03 2.069317023445464E-01
1.690000000000000E+03 1.235000000000000E+03 2.212028542303772E-01
1.670000000000000E+03 1.245000000000000E+03 2.354740061162080E-01
1.650000000000000E+03 1.255000000000000E+03 2.497451580020388E-01
1.630000000000000E+03 1.265000000000000E+03 2.640163098878696E-01
1.610000000000000E+03 1.275000000000000E+03 2.782874617737003E-01
1.590000000000000E+03 1.285000000000000E+03 2.925586136595311E-01
1.570000000000000E+03 1.295000000000000E+03 3.068297655453619E-01
1.550000000000000E+03 1.305000000000000E+03 3.211009174311927E-01
1.530000000000000E+03 1.315000000000000E+03 3.353720693170235E-01
1.510000000000000E+03 1.325000000000000E+03 3.496432212028543E-01
1.490000000000000E+03 1.335000000000000E+03 3.639143730886851E-01
1.470000000000000E+03 1.345000000000000E+03 3.781855249745159E-01
1.450000000000000E+03 1.355000000000000E+03 3.924566768603466E-01
1.430000000000000E+03 1.365000000000000E+03 4.067278287461774E-01
1.410000000000000E+03 1.375000000000000E+03 4.209989806320082E-01
1.390000000000000E+03 1.385000000000000E+03 4.352701325178390E-01
1.370000000000000E+03 1.395000000000000E+03 4.495412844036698E-01
1.350000000000000E+03 1.405000000000000E+03 4.638124362895006E-01
1.330000000000000E+03 1.415000000000000E+03 4.780835881753314E-01
1.310000000000000E+03 1.425000000000000E+03 4.923547400611621E-01
1.290000000000000E+03 1.435000000000000E+03 5.066258919469929E-01
1.270000000000000E+03 1.445000000000000E+03 5.208970438328238E-01
1.250000000000000E+03 1.455000000000000E+03 5.351681957186545E-01
1.230000000000000E+03 1.465000000000000E+03 5.494393476044853E-01
1.210000000000000E+03 1.475000000000000E+03 5.637104994903160E-01
1.190000000000000E+03 1.485000000000000E+03 5.779816513761469E-01
1.170000000000000E+03 1.495000000000000E+03 5.922528032619777E-01
1.150000000000000E+03 1.505000000000000E+03 6.065239551478084E-01
1.130000000000000E+03 1.515000000000000E+03 6.207951070336393E-01
1.110000000000000E+03 1.525000000000000E+03 6.350662589194700E-01
1.090000000000000E+03 1.535000000000000E+03 6.493374108053008E-01
1.070000000000000E+03 1.545000000000000E+03 6.636085626911316E-01
1.050000000000000E+03 1.555000000000000E+03 6.778797145769624E-01
1.030000000000000E+03 1.565000000000000E+03 6.921508664627931E-01
1.010000000000000E+03 1.575000000000000E+03 7.064220183486239E-01
9.900000000000000E+02 1.585000000000000E+03 7.206931702344548E-01
9.700000000000000E+02 1.595000000000000E+03 7.349643221202855E-01
9.500000000000000E+02 1.605000000000000E+03 7.492354740061163E-01
9.300000000000000E+02 1.615000000000000E+03 7.635066258919471E-01
9.100000000000000E+02 1.625000000000000E+03 7.777777777777779E-01
8.900000000000000E+02 1.635000000000000E+03 7.920489296636086E-01
8.700000000000000E+02 1.645000000000000E+03 8.063200815494395E-01
8.500000000000000E+02 1.655000000000000E+03 8.205912334352703E-01
8.300000000000000E+02 1.665000000000000E+03 8.348623853211010E-01
8.100000000000000E+02 1.675000000000000E+03 8.491335372069319E-01
7.900000000000000E+02 1.685000000000000E+03 8.634046890927626E-01
7.700000000000000E+02 1.695000000000000E+03 8.776758409785934E-01
7.500000000000000E+02 1.705000000000000E+03 8.919469928644241E-01
7.300000000000000E+02 1.715000000000000E+03 9.062181447502550E-01
7.100000000000000E+02 1.725000000000000E+03 9.204892966360858E-01
6.900000000000000E+02 1.735000000000000E+03 9.347604485219165E-01
6.700000000000000E+02 1.745000000000000E+03 9.490316004077474E-01
6.500000000000000E+02 1.755000000000000E+03 9.633027522935781E-01
6.300000000000000E+02 1.765000000000000E+03 9.775739041794089E-01
6.100000000000000E+02 1.775000000000000E+03 9.918450560652396E-01
5.900000000000000E+02 1.785000000000000E+03 1.006116207951070E+00
5.700000000000000E+02 1.795000000000000E+03 1.020387359836901E+00
5.500000000000000E+02 1.805000000000000E+03 1.034658511722732E+00
5.300000000000000E+02 1.815000000000000E+03 1.048929663608563E+00
5.100000000000000E+02 1.825000000000000E+03 1.063200815494394E+00
4.900000000000000E+02 1.835000000000000E+03 1.077471967380224E+00
4.700000000000000E+02 1.845000000000000E+03 1.091743119266055E+00
4.500000000000000E+02 1.855000000000000E+03 1.106014271151886E+00
4.300000000000000E+02 1.865000000000000E+03 1.120285423037717E+00
4.100000000000000E+02 1.875000000000000E+03 1.134556574923548E+00
3.900000000000000E+02 1.885000000000000E+03 1.148827726809378E+00
3.700000000000000E+02 1.895000000000000E+03 1.163098878695209E+00
3.500000000000000E+02 1.905000000000000E+03 1.177370030581040E+00
3.300000000000000E+02 1.915000000000000E+03 1.191641182466871E+00
3.100000000000000E+02 1.925000000000000E+03 1.205912334352701E+00
2.900000000000000E+02 1.935000000000000E+03 1.220183486238532E+00
2.700000000000000E+02 1.945000000000000E+03 1.234454638124363E+00
2.500000000000000E+02 1.955000000000000E+03 1.248725790010194E+00
2.300000000000000E+02 1.965000000000000E+03 1.262996941896025E+00
2.100000000000000E+02 1.975000000000000E+03 1.277268093781855E+00
1.900000000000000E+02 1.985000000000000E+03 1.291539245667686E+00
1.700000000000000E+02 1.995000000000000E+03 1.305810397553517E+00
1.990000000000000E+03 1.095000000000000E+03 7.135575942915393E-03
1.970000000000000E+03 1.105000000000000E+03 2.140672782874618E-02
1.950000000000000E+03 1.115000000000000E+03 3.567787971457697E-02
1.930000000000000E+03 1.125000000000000E+03 4.994903160040776E-02
1.910000000000000E+03 1.135000000000000E+03 6.422018348623854E-02
1.890000000000000E+03 1.145000000000000E+03 7.849133537206933E-02
1.870000000000000E+03 1.155000000000000E+03 9.276248725790011E-02
1.850000000000000E+03 1.165000000000000E+03 1.070336391437309E-01
1.830000000000000E+03 1.175000000000000E+03 1.213047910295617E-01
1.810000000000000E+03 1.185000000000000E+03 1.355759429153925E-01
1.790000000000000E+03 1.195000000000000E+03 1.498470948012233E-01
1.770000000000000E+03 1.205000000000000E+03 1.641182466870540E-01
1.750000000000000E+03 1.215000000000000E+03 1.783893985728848E-01
1.730000000000000E+03 1.225000000000000E+03 1.926605504587156E-01
1.710000000000000E+03 1.235000000000000E+03 2.069317023445464E-01
1.690000000000000E+03 1.245000000000000E+03 2.212028542303772E-01
1.670000000000000E+03 1.255000000000000E+03 2.354740061162080E-01
1.650000000000000E+03 1.265000000000000E+03 2.497451580020388E-01
1.630000000000000E+03 1.275000000000000E+03 2.640163098878696E-01
1.610000000000000E+03 1.285000000000000E+03 2.782874617737003E-01
1.590000000000000E+03 1.295000000000000E+03 2.925586136595311E-01
1.570000000000000E+03 1.305000000000000E+03 3.068297655453619E-01
1.550000000000000E+03 1.315000000000000E+03 3.211009174311927E-01
1.530000000000000E+03 1.325000000000000E+03 3.353720693170235E-01
1.510000000000000E+03 1.335000000000000E+03 3.496432212028543E-01
1.490000000000000E+03 1.345000000000000E+03 3.639143730886851E-01
1.470000000000000E+03 1.355000000000000E+03 3.781855249745159E-01
1.450000000000000E+03 1.365000000000000E+03 3.924566768603466E-01
1.430000000000000E+03 1.375000000000000E+03 4.067278287461774E-01
1.410000000000000E+03 1.385000000000000E+03 4.209989806320082E-01
1.390000000000000E+03 1.395000000000000E+03 4.352701325178390E-01
1.370000000000000E+03 1.405000000000000E+03 4.495412844036698E-01
1.350000000000000E+03 1.415000000000000E+03 4.638124362895006E-01
1.330000000000000E+03 1.425000000000000E+03 4.780835881753314E-01
